733.129 732.719 732.308 731.898 734.489 734.079 733.668 733.258 732.848 732.437 732.027 731.616 734.207 733.797 733.387 732.976 732.566 732.155 731.745 734.336 733.926 733.515 733.105 732.694 732.284 731.873 734.465 734.054 733.644 733.233 732.823 732.412 732.002 734.593 734.183 733.772 733.362 732.951 732.541 732.13 731.72 734.311 733.901 733.49 733.08 732.669 732.259 731.849 734.44 734.029 733.619 733.208 732.798 732.388 731.977 734.568 734.158 733.748 733.337 732.927 732.516 732.106 734.695 734.287 733.876 733.466 733.055 732.645 732.234 731.824 734.415 734.005 733.594 733.184 732.773 732.363 731.952 734.544 734.133 733.723 733.312 732.902 732.491 732.081 734.672 734.262 733.851 733.441 733.031 732.62 732.21 731.799 734.391 733.98 733.57 733.159 732.749 732.338 731.928 734.519 734.109 733.698 733.288 732.877 732.467 732.056 734.648 734.237 733.827 733.416 733.006 732.595 732.185 734.776 734.366 733.955 733.545 733.134 732.724 732.313 731.903 734.494 734.084 733.673 733.263 732.852 732.442 732.031 734.623 734.212 733.802 733.391 732.981 732.571 732.16 734.751 734.341 733.931 733.52 733.11 732.699 732.289 734.877 734.47 734.059 733.649 733.238 732.828 732.417 732.007 734.598 734.188 733.777 733.367 732.956 732.546 732.135 734.727 734.316 733.906 733.495 733.085 732.674 732.264 734.855 734.445 734.034 733.624 733.214 732.803 732.393 731.982 734.573 734.163 733.753 733.342 732.932 732.521 732.111 734.702 734.292 733.881 733.471 733.06 732.65 732.239 734.831 734.42 734.01 733.599 733.189 732.778 732.368 734.959 734.549 734.138 733.728 733.317 732.907 732.496 732.086 734.677 734.267 733.856 733.446 733.035 732.625 732.214 734.806 734.395 733.985 733.574 733.164 732.754 732.343 734.934 734.524 734.114 733.703 733.293 732.882 732.472 735.06 734.653 734.242 733.832 733.421 733.011 732.6 732.19 734.781 734.371 733.96 733.55 733.139 732.729 732.318 734.91 734.499 734.089 733.678 733.268 732.857 732.447 735.038 734.628 734.217 733.807 733.396 732.986 732.576 732.165 734.756 734.346 733.935 733.525 733.115 732.704 732.294 734.885 734.475 734.064 733.654 733.243 732.833 732.422 735.014 734.603 734.193 733.782 733.372 732.961 732.551 735.142 734.732 734.321 733.911 733.5 733.09 732.679 732.269 734.86 734.45 734.039 733.629 733.218 732.808 732.398 734.989 734.578 734.168 733.757 733.347 732.937 732.526 735.117 734.707 734.297 733.886 733.476 733.065 732.655 735.243 734.836 734.425 734.015 733.604 733.194 732.783 732.373 734.964 734.554 734.143 733.733 733.322 732.912 732.501 735.093 734.682 734.272 733.861 733.451 733.04 732.63 735.221 734.811 734.4 733.99 733.579 733.169 732.759 732.348 734.939 734.529 734.119 733.708 733.298 732.887 732.477 735.068 734.658 734.247 733.837 733.426 733.016 732.605 735.197 734.786 734.376 733.965 733.555 733.144 732.734 735.325 734.915 734.504 734.094 733.683 733.273 732.862 732.452 735.043 734.633 734.222 733.812 733.401 732.991 732.58 735.172 734.761 734.351 733.94 733.53 733.12 732.709 735.3 734.89 734.479
733.045 732.63 732.215 731.8 734.387 733.972 733.557 733.141 732.726 732.311 731.896 734.483 734.068 733.652 733.237 732.822 732.407 731.992 734.579 734.163 733.748 733.333 732.918 732.503 732.088 731.673 734.259 733.844 733.429 733.014 732.599 732.184 731.769 734.355 733.94 733.525 733.11 732.695 732.28 731.865 734.451 734.036 733.621 733.206 732.791 732.376 731.961 734.547 734.132 733.717 733.302 732.887 732.472 732.056 734.643 734.228 733.813 733.398 732.983 732.568 732.152 731.737 734.324 733.909 733.494 733.078 732.663 732.248 731.833 734.42 734.005 733.59 733.174 732.759 732.344 731.929 734.516 734.101 733.685 733.27 732.855 732.44 732.025 734.612 734.197 733.781 733.366 732.951 732.536 732.121 734.708 734.293 733.877 733.462 733.047 732.632 732.217 731.802 734.388 733.973 733.558 733.143 732.728 732.313 731.898 734.484 734.069 733.654 733.239 732.824 732.409 731.994 734.58 734.165 733.75 733.335 732.92 732.505 732.089 734.676 734.261 733.846 733.431 733.016 732.601 732.185 734.772 734.357 733.942 733.527 733.112 732.697 732.281 731.869 734.453 734.038 733.623 733.208 732.792 732.377 731.962 734.549 734.134 733.719 733.303 732.888 732.473 732.058 734.645 734.23 733.815 733.399 732.984 732.569 732.154 734.741 734.326 733.911 733.495 733.08 732.665 732.25 734.837 734.422 734.006 733.591 733.176 732.761 732.346 734.933 734.517 734.102 733.687 733.272 732.857 732.442 732.027 734.613 734.198 733.783 733.368 732.953 732.538 732.123 734.709 734.294 733.879 733.464 733.049 732.634 732.219 734.805 734.39 733.975 733.56 733.145 732.73 732.315 734.901 734.486 734.071 733.656 733.241 732.826 732.41 734.997 734.582 734.167 733.752 733.337 732.922 732.506 732.091 734.678 734.263 733.848 733.432 733.017 732.602 732.187 734.774 734.359 733.944 733.528 733.113 732.698 732.283 734.87 734.455 734.039 733.624 733.209 732.794 732.379 734.966 734.551 734.135 733.72 733.305 732.89 732.475 735.062 734.647 734.231 733.816 733.401 732.986 732.571 732.156 734.742 734.327 733.912 733.497 733.082 732.667 732.252 734.838 734.423 734.008 733.593 733.178 732.763 732.348 734.934 734.519 734.104 733.689 733.274 732.859 732.443 735.03 734.615 734.2 733.785 733.37 732.955 732.539 735.126 734.711 734.296 733.881 733.466 733.051 732.635 732.221 734.807 734.392 733.977 733.562 733.146 732.731 732.316 734.903 734.488 734.073 733.657 733.242 732.827 732.412 734.999 734.584 734.169 733.753 733.338 732.923 732.508 735.095 734.68 734.265 733.849 733.434 733.019 732.604 735.191 734.776 734.36 733.945 733.53 733.115 732.7 735.287 734.871 734.456 734.041 733.626 733.211 732.796 732.381 734.967 734.552 734.137 733.722 733.307 732.892 732.477 735.063 734.648 734.233 733.818 733.403 732.988 732.573 735.159 734.744 734.329 733.914 733.499 733.084 732.669 735.255 734.84 734.425 734.01 733.595 733.18 732.764 735.351 734.936 734.521 734.106 733.691 733.276 732.86 732.445 735.032 734.617 734.202 733.786 733.371 732.956 732.541 735.128 734.713 734.298 733.882 733.467 733.052 732.637
732.961 732.542 732.122 731.702 734.284 733.864 733.445 733.025 732.605 732.185 731.765 734.347 733.928 733.508 733.088 732.668 732.248 731.829 734.411 733.991 733.571 733.151 732.732 732.312 731.892 734.474 734.054 733.634 733.215 732.795 732.375 731.955 734.537 734.117 733.698 733.278 732.858 732.438 732.018 734.601 734.181 733.761 733.341 732.921 732.502 732.082 734.661 734.244 733.824 733.404 732.985 732.565 732.145 731.725 734.307 733.887 733.468 733.048 732.628 732.208 731.789 734.371 733.951 733.531 733.111 732.691 732.272 731.852 734.434 734.014 733.594 733.174 732.755 732.335 731.915 734.497 734.077 733.658 733.238 732.818 732.398 731.978 734.56 734.141 733.721 733.301 732.881 732.461 732.042 734.624 734.204 733.784 733.364 732.944 732.525 732.105 734.687 734.267 733.847 733.428 733.008 732.588 732.168 734.75 734.33 733.911 733.491 733.071 732.651 732.232 734.811 734.394 733.974 733.554 733.134 732.715 732.295 731.875 734.457 734.037 733.617 733.198 732.778 732.358 731.938 734.52 734.1 733.681 733.261 732.841 732.421 732.002 734.584 734.164 733.744 733.324 732.904 732.485 732.065 734.647 734.227 733.807 733.387 732.968 732.548 732.128 734.71 734.29 733.87 733.451 733.031 732.611 732.191 734.773 734.354 733.934 733.514 733.094 732.674 732.255 734.837 734.417 733.997 733.577 733.157 732.738 732.318 734.9 734.48 734.06 733.641 733.221 732.801 732.381 734.961 734.543 734.124 733.704 733.284 732.864 732.444 732.025 734.607 734.187 733.767 733.347 732.928 732.508 732.088 734.67 734.25 733.83 733.411 732.991 732.571 732.151 734.733 734.313 733.894 733.474 733.054 732.634 732.214 734.797 734.377 733.957 733.537 733.117 732.698 732.278 734.86 734.44 734.02 733.6 733.181 732.761 732.341 734.923 734.503 734.084 733.664 733.244 732.824 732.404 734.986 734.567 734.147 733.727 733.307 732.887 732.468 735.05 734.63 734.21 733.79 733.37 732.951 732.531 735.11 734.693 734.273 733.854 733.434 733.014 732.594 732.174 734.756 734.337 733.917 733.497 733.077 732.657 732.238 734.82 734.4 733.98 733.56 733.141 732.721 732.301 734.883 734.463 734.043 733.624 733.204 732.784 732.364 734.946 734.526 734.107 733.687 733.267 732.847 732.427 735.01 734.59 734.17 733.75 733.33 732.911 732.491 735.073 734.653 734.233 733.813 733.394 732.974 732.554 735.136 734.716 734.297 733.877 733.457 733.037 732.617 735.199 734.78 734.36 733.94 733.52 733.1 732.681 735.26 734.843 734.423 734.003 733.583 733.164 732.744 732.324 734.906 734.486 734.067 733.647 733.227 732.807 732.387 734.969 734.55 734.13 733.71 733.29 732.87 732.451 735.033 734.613 734.193 733.773 733.354 732.934 732.514 735.096 734.676 734.256 733.837 733.417 732.997 732.577 735.159 734.74 734.32 733.9 733.48 733.06 732.641 735.223 734.803 734.383 733.963 733.543 733.124 732.704 735.286 734.866 734.446 734.026 733.607 733.187 732.767 735.349 734.929 734.51 734.09 733.67 733.25 732.83 735.41 734.993 734.573 734.153 733.733 733.313 732.894 732.474 735.056 734.636 734.216 733.797
732.878 732.453 732.029 731.604 734.182 733.757 733.333 732.908 732.484 732.059 731.635 734.212 733.788 733.363 732.939 732.514 732.09 731.665 734.243 733.818 733.394 732.969 732.545 732.12 731.696 734.273 733.849 733.424 733 732.576 732.151 731.727 734.304 733.88 733.455 733.031 732.606 732.182 731.757 734.335 733.91 733.486 733.061 732.637 732.212 731.788 734.365 733.941 733.516 733.092 732.667 732.243 731.818 734.396 733.971 733.547 733.122 732.698 732.274 731.849 734.427 734.002 733.578 733.153 732.729 732.304 731.88 734.457 734.033 733.608 733.184 732.759 732.335 731.91 734.488 734.063 733.639 733.214 732.79 732.365 731.941 734.518 734.094 733.669 733.245 732.821 732.396 731.972 734.549 734.125 733.7 733.276 732.851 732.427 732.002 734.58 734.155 733.731 733.306 732.882 732.457 732.033 734.61 734.186 733.761 733.337 732.912 732.488 732.064 734.641 734.216 733.792 733.368 732.943 732.519 732.094 734.672 734.247 733.823 733.398 732.974 732.549 732.125 734.702 734.278 733.853 733.429 733.004 732.58 732.155 734.733 734.308 733.884 733.459 733.035 732.61 732.186 734.763 734.339 733.915 733.49 733.066 732.641 732.217 734.794 734.37 733.945 733.521 733.096 732.672 732.247 734.825 734.4 733.976 733.551 733.127 732.702 732.278 734.855 734.431 734.006 733.582 733.157 732.733 732.309 734.886 734.462 734.037 733.613 733.188 732.764 732.339 734.917 734.492 734.068 733.643 733.219 732.794 732.37 734.947 734.523 734.098 733.674 733.249 732.825 732.401 734.978 734.553 734.129 733.704 733.28 732.856 732.431 735.008 734.584 734.16 733.735 733.311 732.886 732.462 732.038 734.615 734.19 733.766 733.341 732.917 732.492 732.068 734.645 734.221 733.796 733.372 732.947 732.523 732.099 734.676 734.251 733.827 733.402 732.978 732.554 732.129 734.707 734.282 733.858 733.433 733.009 732.584 732.16 734.737 734.313 733.888 733.464 733.039 732.615 732.19 734.768 734.343 733.919 733.494 733.07 732.646 732.221 734.798 734.374 733.949 733.525 733.101 732.676 732.252 734.829 734.405 733.98 733.556 733.131 732.707 732.282 734.86 734.435 734.011 733.586 733.162 732.737 732.313 734.89 734.466 734.041 733.617 733.193 732.768 732.344 734.921 734.496 734.072 733.648 733.223 732.799 732.374 734.952 734.527 734.103 733.678 733.254 732.829 732.405 734.982 734.558 734.133 733.709 733.284 732.86 732.435 735.013 734.588 734.164 733.739 733.315 732.891 732.466 735.043 734.619 734.195 733.77 733.346 732.921 732.497 735.074 734.65 734.225 733.801 733.376 732.952 732.527 735.105 734.68 734.256 733.831 733.407 732.982 732.558 735.135 734.711 734.286 733.862 733.438 733.013 732.589 735.166 734.741 734.317 733.893 733.468 733.044 732.619 735.197 734.772 734.348 733.923 733.499 733.074 732.65 735.227 734.803 734.378 733.954 733.529 733.105 732.68 735.258 734.833 734.409 733.984 733.56 733.135 732.711 735.288 734.864 734.44 734.015 733.591 733.166 732.742 735.319 734.895 734.47 734.046 733.621 733.197 732.772 735.35 734.925 734.501 734.076 733.652 733.227 732.803 735.38 734.956
732.794 732.364 731.935 734.508 734.079 733.65 733.221 732.792 732.362 731.933 734.506 734.077 733.648 733.219 732.789 732.36 731.931 734.504 734.075 733.646 733.217 732.787 732.358 731.929 734.502 734.073 733.644 733.215 732.786 732.356 731.927 734.5 734.071 733.642 733.213 732.783 732.354 731.925 734.498 734.069 733.64 733.211 732.781 732.352 731.923 734.496 734.067 733.638 733.208 732.779 732.35 731.921 734.494 734.065 733.636 733.206 732.777 732.348 731.919 734.492 734.063 733.634 733.204 732.775 732.346 731.917 734.49 734.061 733.632 733.203 732.773 732.344 731.915 734.488 734.059 733.63 733.2 732.771 732.342 731.913 734.486 734.057 733.628 733.198 732.769 732.34 731.911 734.484 734.055 733.625 733.196 732.767 732.338 731.909 734.482 734.053 733.623 733.194 732.765 732.336 731.907 734.48 734.051 733.621 733.192 732.763 732.334 731.905 734.478 734.049 733.62 733.19 732.761 732.332 731.903 734.476 734.047 733.617 733.188 732.759 732.33 731.901 734.474 734.045 733.615 733.186 732.757 732.328 731.899 734.472 734.042 733.613 733.184 732.755 732.326 731.897 734.47 734.04 733.611 733.182 732.753 732.324 734.894 734.468 734.038 733.609 733.18 732.751 732.322 734.895 734.466 734.036 733.607 733.178 732.749 732.32 734.893 734.464 734.034 733.605 733.176 732.747 732.318 734.891 734.462 734.032 733.603 733.174 732.745 732.316 734.889 734.459 734.03 733.601 733.172 732.743 732.314 734.887 734.457 734.028 733.599 733.17 732.741 732.312 734.885 734.455 734.026 733.597 733.168 732.739 732.31 734.883 734.453 734.024 733.595 733.166 732.737 732.308 734.88 734.451 734.022 733.593 733.164 732.735 732.306 734.879 734.449 734.02 733.591 733.162 732.733 732.304 734.876 734.447 734.018 733.589 733.16 732.731 732.302 734.874 734.445 734.016 733.587 733.158 732.729 732.3 734.872 734.443 734.014 733.585 733.156 732.727 732.298 734.87 734.441 734.012 733.583 733.154 732.725 732.296 734.868 734.439 734.01 733.581 733.152 732.723 732.294 734.866 734.437 734.008 733.579 733.15 732.721 732.292 734.864 734.435 734.006 733.577 733.148 732.719 732.29 734.862 734.433 734.004 733.575 733.146 732.717 732.288 734.86 734.431 734.002 733.573 733.144 732.715 732.286 734.858 734.429 734 733.571 733.142 732.713 732.284 734.856 734.427 733.998 733.569 733.14 732.711 732.281 734.854 734.425 733.996 733.567 733.138 732.709 732.279 734.852 734.423 733.994 733.565 733.136 732.707 735.277 734.85 734.421 733.992 733.563 733.134 732.705 735.277 734.848 734.419 733.99 733.561 733.132 732.703 735.275 734.846 734.417 733.988 733.559 733.13 732.701 735.273 734.844 734.415 733.986 733.557 733.128 732.698 735.271 734.842 734.413 733.984 733.555 733.126 732.696 735.269 734.84 734.411 733.982 733.553 733.124 732.694 735.267 734.838 734.409 733.98 733.551 733.122 732.692 735.265 734.836 734.407 733.978 733.549 733.12 732.69 735.263 734.834 734.405 733.976 733.547 733.118 732.688 735.261 734.832 734.403 733.974 733.545 733.115 732.686 735.259 734.83 734.401 733.972 733.543 733.113
732.71 732.276 731.842 734.41 733.976 733.542 733.109 732.675 732.241 731.807 734.375 733.942 733.508 733.074 732.64 732.206 731.773 734.341 733.907 733.473 733.039 732.606 732.172 731.738 734.306 733.872 733.438 733.005 732.571 732.137 731.703 734.271 733.838 733.404 732.97 732.536 732.102 731.669 734.237 733.803 733.369 732.935 732.502 732.068 734.636 734.202 733.768 733.334 732.901 732.467 732.033 734.601 734.167 733.734 733.3 732.866 732.432 731.998 734.566 734.133 733.699 733.265 732.831 732.398 731.964 734.532 734.098 733.664 733.23 732.797 732.363 731.929 734.497 734.063 733.63 733.196 732.762 732.328 731.894 734.462 734.029 733.595 733.161 732.727 732.294 731.86 734.428 733.994 733.56 733.126 732.693 732.259 731.825 734.393 733.959 733.526 733.092 732.658 732.224 734.792 734.358 733.925 733.491 733.057 732.623 732.19 734.758 734.324 733.89 733.456 733.022 732.589 732.155 734.723 734.289 733.855 733.422 732.988 732.554 732.12 734.688 734.254 733.821 733.387 732.953 732.519 732.086 734.654 734.22 733.786 733.352 732.918 732.485 732.051 734.619 734.185 733.751 733.318 732.884 732.45 732.016 734.584 734.15 733.717 733.283 732.849 732.415 731.981 734.549 734.116 733.682 733.248 732.814 732.381 731.947 734.515 734.081 733.647 733.214 732.78 732.346 734.914 734.48 734.046 733.613 733.179 732.745 732.311 734.879 734.445 734.012 733.578 733.144 732.71 732.276 734.845 734.411 733.977 733.543 733.109 732.676 732.242 734.81 734.376 733.942 733.509 733.075 732.641 732.207 734.775 734.341 733.908 733.474 733.04 732.606 732.172 734.741 734.307 733.873 733.439 733.005 732.572 732.138 734.706 734.272 733.838 733.405 732.971 732.537 732.103 734.671 734.237 733.804 733.37 732.936 732.502 735.07 734.637 734.203 733.769 733.335 732.901 732.468 735.036 734.602 734.168 733.734 733.301 732.867 732.433 735.001 734.567 734.133 733.7 733.266 732.832 732.398 734.966 734.533 734.099 733.665 733.231 732.797 732.364 734.932 734.498 734.064 733.63 733.197 732.763 732.329 734.897 734.463 734.029 733.596 733.162 732.728 732.294 734.862 734.429 733.995 733.561 733.127 732.693 732.26 734.828 734.394 733.96 733.526 733.093 732.659 732.225 734.793 734.359 733.925 733.492 733.058 732.624 735.192 734.758 734.324 733.891 733.457 733.023 732.589 735.157 734.724 734.29 733.856 733.422 732.988 732.555 735.123 734.689 734.255 733.821 733.388 732.954 732.52 735.088 734.654 734.22 733.787 733.353 732.919 732.485 735.053 734.62 734.186 733.752 733.318 732.884 732.451 735.019 734.585 734.151 733.717 733.284 732.85 732.416 734.984 734.55 734.116 733.683 733.249 732.815 732.381 734.949 734.516 734.082 733.648 733.214 732.78 735.349 734.915 734.481 734.047 733.613 733.18 732.746 735.314 734.88 734.446 734.012 733.579 733.145 732.711 735.279 734.845 734.412 733.978 733.544 733.11 732.676 735.245 734.811 734.377 733.943 733.509 733.076 732.642 735.21 734.776 734.342 733.908 733.475 733.041 732.607 735.175 734.741 734.307 733.874 733.44 733.006 732.572 735.141 734.707 734.273
732.626 732.187 731.749 734.312 733.874 733.435 732.997 732.558 732.12 731.681 734.245 733.806 733.368 732.929 732.491 732.052 731.614 734.177 733.739 733.301 732.862 732.424 731.985 734.549 734.11 733.672 733.233 732.795 732.356 731.918 734.481 734.043 733.604 733.166 732.727 732.289 731.851 734.414 733.975 733.537 733.099 732.66 732.222 731.783 734.347 733.908 733.47 733.031 732.593 732.154 731.716 734.279 733.841 733.402 732.964 732.526 732.087 734.65 734.212 733.774 733.335 732.897 732.458 732.02 734.583 734.145 733.706 733.268 732.829 732.391 731.952 734.516 734.077 733.639 733.2 732.762 732.323 731.885 734.448 734.01 733.572 733.133 732.695 732.256 731.818 734.381 733.943 733.504 733.066 732.627 732.189 734.752 734.314 733.875 733.437 732.998 732.56 732.122 734.685 734.246 733.808 733.37 732.931 732.493 732.054 734.618 734.179 733.741 733.302 732.864 732.425 731.987 734.55 734.112 733.673 733.235 732.797 732.358 731.92 734.483 734.045 733.606 733.168 732.729 732.291 734.854 734.416 733.977 733.539 733.1 732.662 732.223 734.787 734.348 733.91 733.471 733.033 732.594 732.156 734.719 734.281 733.843 733.404 732.966 732.527 732.089 734.652 734.214 733.775 733.337 732.898 732.46 732.021 734.585 734.146 733.708 733.269 732.831 732.393 731.954 734.517 734.079 733.641 733.202 732.764 732.325 734.889 734.45 734.012 733.573 733.135 732.696 732.258 734.821 734.383 733.944 733.506 733.068 732.629 732.191 734.754 734.316 733.877 733.439 733 732.562 732.123 734.687 734.248 733.81 733.371 732.933 732.494 732.056 734.619 734.181 733.742 733.304 732.865 732.427 734.99 734.552 734.114 733.675 733.237 732.798 732.36 734.923 734.485 734.046 733.608 733.169 732.731 732.292 734.856 734.417 733.979 733.54 733.102 732.664 732.225 734.788 734.35 733.912 733.473 733.035 732.596 732.158 734.721 734.283 733.844 733.406 732.967 732.529 735.092 734.654 734.215 733.777 733.339 732.9 732.462 735.025 734.586 734.148 733.71 733.271 732.833 732.394 734.958 734.519 734.081 733.642 733.204 732.765 732.327 734.89 734.452 734.013 733.575 733.136 732.698 732.26 734.823 734.385 733.946 733.508 733.069 732.631 735.194 734.756 734.317 733.879 733.44 733.002 732.563 735.127 734.688 734.25 733.811 733.373 732.935 732.496 735.059 734.621 734.183 733.744 733.306 732.867 732.429 734.992 734.554 734.115 733.677 733.238 732.8 732.361 734.925 734.486 734.048 733.609 733.171 732.733 735.293 734.857 734.419 733.981 733.542 733.104 732.665 735.229 734.79 734.352 733.913 733.475 733.036 732.598 735.161 734.723 734.284 733.846 733.407 732.969 732.531 735.094 734.656 734.217 733.779 733.34 732.902 732.463 735.027 734.588 734.15 733.711 733.273 732.834 732.396 734.959 734.521 734.082 733.644 733.206 732.767 735.33 734.892 734.453 734.015 733.577 733.138 732.7 735.263 734.825 734.386 733.948 733.509 733.071 732.632 735.196 734.757 734.319 733.88 733.442 733.004 732.565 735.128 734.69 734.252 733.813 733.375 732.936 732.498 735.061 734.623 734.184 733.746 733.307 732.869 735.432
732.542 732.099 731.655 734.214 733.771 733.328 732.885 732.442 731.999 734.557 734.114 733.671 733.228 732.785 732.342 731.899 734.457 734.014 733.571 733.128 732.685 732.242 731.799 734.357 733.914 733.471 733.028 732.585 732.142 731.699 734.257 733.814 733.371 732.928 732.485 732.042 734.601 734.157 733.714 733.271 732.828 732.385 731.942 734.501 734.057 733.614 733.171 732.728 732.285 731.842 734.401 733.957 733.514 733.071 732.628 732.185 731.742 734.301 733.857 733.414 732.971 732.528 732.085 734.644 734.201 733.757 733.314 732.871 732.428 731.985 734.544 734.101 733.658 733.214 732.771 732.328 731.885 734.444 734.001 733.558 733.114 732.671 732.228 731.785 734.344 733.901 733.458 733.015 732.571 732.128 734.687 734.244 733.801 733.358 732.914 732.471 732.028 734.587 734.144 733.701 733.258 732.815 732.371 731.928 734.487 734.044 733.601 733.158 732.715 732.271 734.828 734.387 733.944 733.501 733.058 732.615 732.171 734.73 734.287 733.844 733.401 732.958 732.515 732.071 734.63 734.187 733.744 733.301 732.858 732.415 731.972 734.53 734.087 733.644 733.201 732.758 732.315 734.873 734.43 733.987 733.544 733.101 732.658 732.215 734.773 734.33 733.887 733.444 733.001 732.558 732.115 734.673 734.23 733.787 733.344 732.901 732.458 732.015 734.573 734.13 733.687 733.244 732.801 732.358 734.917 734.474 734.03 733.587 733.144 732.701 732.258 734.817 734.373 733.93 733.487 733.044 732.601 732.158 734.717 734.274 733.83 733.387 732.944 732.501 732.058 734.617 734.174 733.73 733.287 732.844 732.401 734.96 734.517 734.074 733.63 733.187 732.744 732.301 734.86 734.417 733.974 733.531 733.087 732.644 732.201 734.76 734.317 733.874 733.431 732.987 732.544 732.101 734.66 734.217 733.774 733.331 732.887 732.444 735.003 734.56 734.117 733.674 733.231 732.787 732.344 734.903 734.46 734.017 733.574 733.131 732.687 732.244 734.803 734.36 733.917 733.474 733.031 732.588 735.144 734.703 734.26 733.817 733.374 732.931 732.488 735.046 734.603 734.16 733.717 733.274 732.831 732.388 734.946 734.503 734.06 733.617 733.174 732.731 732.288 734.846 734.403 733.96 733.517 733.074 732.631 735.189 734.746 734.303 733.86 733.417 732.974 732.531 735.089 734.646 734.203 733.76 733.317 732.874 732.431 734.99 734.546 734.103 733.66 733.217 732.774 732.331 734.89 734.446 734.003 733.56 733.117 732.674 735.233 734.79 734.346 733.903 733.46 733.017 732.574 735.133 734.69 734.246 733.803 733.36 732.917 732.474 735.033 734.59 734.146 733.703 733.26 732.817 732.374 734.933 734.49 734.047 733.603 733.16 732.717 735.276 734.833 734.39 733.947 733.503 733.06 732.617 735.176 734.733 734.29 733.847 733.403 732.96 732.517 735.076 734.633 734.19 733.747 733.303 732.86 732.417 734.976 734.533 734.09 733.647 733.203 732.76 735.319 734.876 734.433 733.99 733.547 733.104 732.66 735.219 734.776 734.333 733.89 733.447 733.004 732.56 735.119 734.676 734.233 733.79 733.347 732.904 735.46 735.019 734.576 734.133 733.69 733.247 732.804 735.362 734.919 734.476 734.033 733.59
732.458 732.01 734.561 734.116 733.668 733.221 732.773 732.325 731.877 734.431 733.984 733.536 733.088 732.64 732.193 731.745 734.299 733.851 733.403 732.955 732.508 732.06 734.611 734.166 733.718 733.271 732.823 732.375 731.927 734.481 734.033 733.586 733.138 732.69 732.242 731.795 734.349 733.901 733.453 733.005 732.557 732.11 734.661 734.216 733.768 733.32 732.873 732.425 731.977 734.531 734.083 733.636 733.188 732.74 732.292 731.844 734.399 733.951 733.503 733.055 732.607 732.16 734.711 734.266 733.818 733.37 732.923 732.475 732.027 734.581 734.133 733.685 733.238 732.79 732.342 731.894 734.448 734.001 733.553 733.105 732.657 732.21 734.761 734.316 733.868 733.42 732.973 732.525 732.077 734.631 734.183 733.735 733.288 732.84 732.392 731.944 734.498 734.051 733.603 733.155 732.707 732.259 734.811 734.366 733.918 733.47 733.022 732.575 732.127 734.681 734.233 733.785 733.338 732.89 732.442 731.994 734.548 734.1 733.653 733.205 732.757 732.309 734.861 734.416 733.968 733.52 733.072 732.625 732.177 734.731 734.283 733.835 733.387 732.94 732.492 732.044 734.598 734.15 733.703 733.255 732.807 732.359 734.911 734.466 734.018 733.57 733.122 732.674 732.227 734.781 734.333 733.885 733.437 732.99 732.542 732.094 734.648 734.2 733.753 733.305 732.857 732.409 734.961 734.516 734.068 733.62 733.172 732.724 732.276 734.831 734.383 733.935 733.487 733.039 732.592 732.144 734.698 734.25 733.802 733.355 732.907 732.459 735.011 734.565 734.118 733.67 733.222 732.774 732.326 734.88 734.433 733.985 733.537 733.089 732.642 732.194 734.748 734.3 733.852 733.405 732.957 732.509 735.06 734.615 734.167 733.72 733.272 732.824 732.376 734.93 734.483 734.035 733.587 733.139 732.692 732.244 734.798 734.35 733.902 733.454 733.007 732.559 735.11 734.665 734.217 733.77 733.322 732.874 732.426 734.98 734.533 734.085 733.637 733.189 732.741 732.294 734.848 734.4 733.952 733.504 733.057 732.609 735.16 734.715 734.267 733.819 733.372 732.924 732.476 735.03 734.582 734.135 733.687 733.239 732.791 732.344 734.898 734.45 734.002 733.554 733.107 732.659 735.21 734.765 734.317 733.869 733.422 732.974 732.526 735.08 734.632 734.185 733.737 733.289 732.841 732.393 734.948 734.5 734.052 733.604 733.156 732.709 735.26 734.815 734.367 733.919 733.472 733.024 732.576 735.13 734.682 734.234 733.787 733.339 732.891 732.443 734.997 734.55 734.102 733.654 733.206 732.759 735.31 734.865 734.417 733.969 733.521 733.074 732.626 735.18 734.732 734.284 733.837 733.389 732.941 732.493 735.047 734.599 734.152 733.704 733.256 732.808 735.36 734.915 734.467 734.019 733.571 733.124 732.676 735.23 734.782 734.334 733.886 733.439 732.991 732.543 735.097 734.649 734.202 733.754 733.306 732.858 735.41 734.965 734.517 734.069 733.621 733.173 732.726 735.28 734.832 734.384 733.936 733.489 733.041 732.593 735.147 734.699 734.252 733.804 733.356 732.908 735.46 735.015 734.567 734.119 733.671 733.223 732.776 735.33 734.882 734.434 733.986 733.539 733.091 732.643 735.197 734.749
732.374 731.921 734.471 734.018 733.566 733.113 732.661 732.208 731.756 734.305 733.853 733.401 732.948 732.496 732.043 734.592 734.14 733.688 733.235 732.783 732.33 731.878 734.427 733.975 733.522 733.07 732.618 732.165 731.713 734.262 733.81 733.357 732.905 732.452 732 734.549 734.097 733.644 733.192 732.739 732.287 731.835 734.384 733.932 733.479 733.027 732.574 732.122 734.671 734.219 733.766 733.314 732.861 732.409 731.956 734.506 734.053 733.601 733.148 732.696 732.244 731.791 734.341 733.888 733.436 732.983 732.531 732.078 734.628 734.175 733.723 733.27 732.818 732.365 731.913 734.462 734.01 733.558 733.105 732.653 732.2 734.75 734.297 733.845 733.392 732.94 732.487 732.035 734.584 734.132 733.679 733.227 732.775 732.322 731.87 734.419 733.967 733.514 733.062 732.609 732.157 734.706 734.254 733.801 733.349 732.896 732.444 731.992 734.541 734.089 733.636 733.184 732.731 732.279 734.828 734.376 733.923 733.471 733.018 732.566 732.113 734.663 734.21 733.758 733.306 732.853 732.401 731.948 734.498 734.045 733.593 733.14 732.688 732.235 734.785 734.332 733.88 733.427 732.975 732.523 732.07 734.62 734.167 733.715 733.262 732.81 732.357 734.907 734.454 734.002 733.549 733.097 732.644 732.192 734.741 734.289 733.836 733.384 732.932 732.479 732.027 734.576 734.124 733.671 733.219 732.766 732.314 734.863 734.411 733.958 733.506 733.053 732.601 732.149 734.698 734.245 733.793 733.341 732.888 732.436 734.985 734.533 734.08 733.628 733.175 732.723 732.27 734.82 734.367 733.915 733.463 733.01 732.558 732.105 734.655 734.202 733.75 733.297 732.845 732.392 734.942 734.489 734.037 733.584 733.132 732.68 732.227 734.776 734.324 733.872 733.419 732.967 732.514 735.064 734.611 734.159 733.706 733.254 732.801 732.349 734.898 734.446 733.994 733.541 733.089 732.636 732.184 734.733 734.281 733.828 733.376 732.923 732.471 735.02 734.568 734.115 733.663 733.211 732.758 732.306 734.855 734.403 733.95 733.498 733.045 732.593 735.142 734.69 734.237 733.785 733.332 732.88 732.427 734.977 734.524 734.072 733.62 733.167 732.715 732.262 734.812 734.359 733.907 733.454 733.002 732.549 735.099 734.646 734.194 733.741 733.289 732.837 732.384 734.933 734.481 734.029 733.576 733.124 732.671 735.221 734.768 734.316 733.863 733.411 732.958 732.506 735.055 734.603 734.151 733.698 733.246 732.793 732.341 734.89 734.438 733.985 733.533 733.08 732.628 735.177 734.725 734.272 733.82 733.368 732.915 732.463 735.012 734.56 734.107 733.655 733.202 732.75 735.299 734.847 734.394 733.942 733.489 733.037 732.585 735.134 734.682 734.229 733.777 733.324 732.872 732.419 734.969 734.516 734.064 733.611 733.159 732.706 735.256 734.803 734.351 733.898 733.446 732.994 732.541 735.091 734.638 734.186 733.733 733.281 732.828 735.378 734.925 734.473 734.02 733.568 733.115 732.663 735.212 734.76 734.307 733.855 733.403 732.95 732.498 735.047 734.595 734.142 733.69 733.237 732.785 735.334 734.882 734.429 733.977 733.525 733.072 732.62 735.169 734.717 734.264 733.812 733.359 732.907
732.29 731.833 734.377 733.92 733.463 733.006 732.549 732.092 731.635 734.179 733.722 733.265 732.808 732.351 731.894 734.439 733.982 733.524 733.067 732.61 732.153 731.696 734.241 733.784 733.327 732.869 732.412 731.955 734.5 734.043 733.586 733.129 732.672 732.214 731.757 734.302 733.845 733.388 732.931 732.474 732.016 734.561 734.104 733.647 733.19 732.733 732.276 731.818 734.363 733.906 733.449 732.992 732.535 732.078 734.622 734.165 733.708 733.251 732.794 732.337 731.88 734.425 733.967 733.51 733.053 732.596 732.139 734.684 734.227 733.769 733.312 732.855 732.398 731.941 734.486 734.029 733.572 733.114 732.657 732.2 734.745 734.288 733.831 733.374 732.917 732.459 732.002 734.547 734.09 733.633 733.176 732.719 732.261 731.805 734.349 733.892 733.435 732.978 732.521 732.064 734.608 734.151 733.694 733.237 732.78 732.323 731.866 734.41 733.953 733.496 733.039 732.582 732.125 734.67 734.212 733.755 733.298 732.841 732.384 731.927 734.472 734.015 733.557 733.1 732.643 732.186 734.731 734.274 733.817 733.359 732.902 732.445 731.988 734.533 734.076 733.619 733.161 732.704 732.247 734.792 734.335 733.878 733.421 732.964 732.506 732.049 734.594 734.137 733.68 733.223 732.766 732.309 734.853 734.396 733.939 733.482 733.025 732.568 732.111 734.655 734.198 733.741 733.284 732.827 732.37 734.915 734.457 734 733.543 733.086 732.629 732.172 734.717 734.26 733.802 733.345 732.888 732.431 734.976 734.519 734.062 733.604 733.147 732.69 732.233 734.778 734.321 733.864 733.407 732.949 732.492 735.037 734.58 734.123 733.666 733.209 732.752 732.294 734.839 734.382 733.925 733.468 733.011 732.554 732.097 734.641 734.184 733.727 733.27 732.813 732.356 734.9 734.443 733.986 733.529 733.072 732.615 732.158 734.703 734.245 733.788 733.331 732.874 732.417 734.962 734.505 734.047 733.59 733.133 732.676 732.219 734.764 734.307 733.849 733.392 732.935 732.478 735.023 734.566 734.109 733.652 733.194 732.737 732.28 734.825 734.368 733.911 733.454 732.997 732.539 735.084 734.627 734.17 733.713 733.256 732.799 732.342 734.886 734.429 733.972 733.515 733.058 732.601 735.145 734.688 734.231 733.774 733.317 732.86 732.403 734.948 734.49 734.033 733.576 733.119 732.662 735.207 734.75 734.292 733.835 733.378 732.921 732.464 735.009 734.552 734.095 733.637 733.18 732.723 735.268 734.811 734.354 733.897 733.44 732.982 732.525 735.07 734.613 734.156 733.699 733.242 732.785 735.327 734.872 734.415 733.958 733.501 733.044 732.587 735.131 734.674 734.217 733.76 733.303 732.846 732.389 734.933 734.476 734.019 733.562 733.105 732.648 735.193 734.735 734.278 733.821 733.364 732.907 732.45 734.995 734.537 734.08 733.623 733.166 732.709 735.254 734.797 734.34 733.882 733.425 732.968 732.511 735.056 734.599 734.142 733.685 733.227 732.77 735.315 734.858 734.401 733.944 733.487 733.03 732.572 735.117 734.66 734.203 733.746 733.289 732.832 735.376 734.919 734.462 734.005 733.548 733.091 732.634 735.178 734.721 734.264 733.807 733.35 732.893 735.438 734.98 734.523 734.066
732.206 731.744 734.284 733.822 733.361 732.899 732.437 731.975 734.515 734.054 733.592 733.13 732.668 732.206 731.745 734.285 733.823 733.361 732.899 732.438 731.976 734.516 734.054 733.592 733.131 732.669 732.207 731.745 734.285 733.824 733.362 732.9 732.438 731.976 734.517 734.055 733.593 733.131 732.669 732.208 731.746 734.286 733.824 733.362 732.901 732.439 731.977 734.517 734.055 733.594 733.132 732.67 732.208 731.747 734.287 733.825 733.363 732.901 732.44 731.978 734.518 734.056 733.594 733.132 732.671 732.209 731.747 734.287 733.825 733.364 732.902 732.44 731.978 734.518 734.057 733.595 733.133 732.671 732.21 734.75 734.288 733.826 733.364 732.902 732.441 731.979 734.519 734.057 733.595 733.134 732.672 732.21 734.75 734.288 733.827 733.365 732.903 732.441 731.98 734.52 734.058 733.596 733.134 732.673 732.211 734.751 734.289 733.827 733.366 732.904 732.442 731.98 734.52 734.058 733.597 733.135 732.673 732.211 734.751 734.29 733.828 733.366 732.904 732.443 731.981 734.521 734.059 733.597 733.136 732.674 732.212 734.752 734.29 733.829 733.367 732.905 732.443 731.981 734.522 734.06 733.598 733.136 732.674 732.213 734.753 734.291 733.829 733.367 732.906 732.444 731.982 734.522 734.06 733.599 733.137 732.675 732.213 734.753 734.292 733.83 733.368 732.906 732.444 731.985 734.523 734.061 733.599 733.137 732.676 732.214 734.754 734.292 733.83 733.369 732.907 732.445 734.985 734.523 734.062 733.6 733.138 732.676 732.214 734.755 734.293 733.831 733.369 732.907 732.446 734.986 734.524 734.062 733.6 733.139 732.677 732.215 734.755 734.293 733.832 733.37 732.908 732.446 734.986 734.525 734.063 733.601 733.139 732.677 732.216 734.756 734.294 733.832 733.37 732.909 732.447 734.987 734.525 734.063 733.602 733.14 732.678 732.216 734.756 734.295 733.833 733.371 732.909 732.448 734.988 734.526 734.064 733.602 733.141 732.679 732.217 734.757 734.295 733.833 733.372 732.91 732.448 734.988 734.526 734.065 733.603 733.141 732.679 732.218 734.758 734.296 733.834 733.372 732.911 732.449 734.989 734.527 734.065 733.604 733.142 732.68 735.22 734.758 734.297 733.835 733.373 732.911 732.449 734.99 734.528 734.066 733.604 733.142 732.681 735.221 734.759 734.297 733.835 733.374 732.912 732.45 734.99 734.528 734.067 733.605 733.143 732.681 735.221 734.76 734.298 733.836 733.374 732.912 732.451 734.991 734.529 734.067 733.605 733.144 732.682 735.222 734.76 734.298 733.837 733.375 732.913 732.451 734.991 734.53 734.068 733.606 733.144 732.682 735.223 734.761 734.299 733.837 733.375 732.914 732.452 734.992 734.53 734.068 733.607 733.145 732.683 735.223 734.761 734.3 733.838 733.376 732.914 732.453 734.993 734.531 734.069 733.607 733.146 732.684 735.224 734.762 734.3 733.839 733.377 732.915 732.453 734.993 734.531 734.07 733.608 733.146 732.684 735.224 734.763 734.301 733.839 733.377 732.916 735.456 734.994 734.532 734.07 733.609 733.147 732.685 735.225 734.763 734.302 733.84 733.378 732.916 735.456 734.995 734.533 734.071 733.609 733.147 732.686 735.226
732.122 731.655 734.191 733.724 733.258 732.792 732.325 731.859 734.394 733.928 733.461 732.995 732.528 732.062 734.595 734.131 733.664 733.198 732.732 732.265 731.799 734.334 733.868 733.401 732.935 732.468 732.002 734.537 734.071 733.604 733.138 732.672 732.205 731.739 734.274 733.808 733.341 732.875 732.408 731.942 734.477 734.011 733.544 733.078 732.611 732.145 734.678 734.214 733.748 733.281 732.815 732.348 731.882 734.417 733.951 733.484 733.018 732.551 732.085 734.62 734.154 733.688 733.221 732.755 732.288 731.822 734.357 733.891 733.424 732.958 732.491 732.025 734.56 734.094 733.628 733.161 732.695 732.228 734.761 734.297 733.831 733.364 732.898 732.431 731.965 734.5 734.034 733.568 733.101 732.635 732.168 734.704 734.237 733.771 733.304 732.838 732.371 731.905 734.44 733.974 733.507 733.041 732.575 732.108 734.644 734.177 733.711 733.244 732.778 732.311 734.844 734.38 733.914 733.448 732.981 732.515 732.048 734.584 734.117 733.651 733.184 732.718 732.251 734.787 734.32 733.854 733.387 732.921 732.455 731.988 734.524 734.057 733.591 733.124 732.658 732.191 734.727 734.26 733.794 733.327 732.861 732.395 734.927 734.464 733.997 733.531 733.064 732.598 732.131 734.667 734.2 733.734 733.267 732.801 732.335 734.87 734.404 733.937 733.471 733.004 732.538 732.071 734.607 734.14 733.674 733.207 732.741 732.275 734.81 734.344 733.877 733.411 732.944 732.478 735.011 734.547 734.08 733.614 733.147 732.681 732.214 734.75 734.283 733.817 733.351 732.884 732.418 734.953 734.487 734.02 733.554 733.087 732.621 732.154 734.69 734.224 733.757 733.291 732.824 732.358 734.893 734.427 733.96 733.494 733.027 732.561 735.094 734.63 734.163 733.697 733.231 732.764 732.298 734.833 734.367 733.9 733.434 732.967 732.501 735.036 734.57 734.103 733.637 733.171 732.704 732.238 734.773 734.307 733.84 733.374 732.907 732.441 734.976 734.51 734.043 733.577 733.11 732.644 735.177 734.713 734.247 733.78 733.314 732.847 732.381 734.916 734.45 733.983 733.517 733.051 732.584 735.12 734.653 734.187 733.72 733.254 732.787 732.321 734.856 734.39 733.923 733.457 732.99 732.524 735.059 734.593 734.127 733.66 733.194 732.727 735.26 734.796 734.33 733.863 733.397 732.931 732.464 734.999 734.533 734.067 733.6 733.134 732.667 735.203 734.736 734.27 733.803 733.337 732.87 732.404 734.939 734.473 734.007 733.54 733.074 732.607 735.143 734.676 734.21 733.743 733.277 732.81 735.343 734.879 734.413 733.947 733.48 733.014 732.547 735.083 734.616 734.15 733.683 733.217 732.75 735.286 734.819 734.353 733.886 733.42 732.954 732.487 735.023 734.556 734.09 733.623 733.157 732.69 735.226 734.759 734.293 733.827 733.36 732.894 735.426 734.963 734.496 734.03 733.563 733.097 732.63 735.166 734.699 734.233 733.766 733.3 732.834 735.369 734.903 734.436 733.97 733.503 733.037 732.57 735.106 734.639 734.173 733.706 733.24 732.774 735.309 734.843 734.376 733.91 733.443 732.977 735.51 735.046 734.579 734.113 733.646 733.18 732.714 735.249 734.783 734.316 733.85 733.383
732.038 731.569 734.098 733.626 733.155 732.684 732.213 731.742 734.273 733.802 733.331 732.859 732.388 731.917 734.448 733.977 733.506 733.035 732.564 732.093 731.622 734.152 733.681 733.21 732.739 732.268 731.797 734.327 733.856 733.385 732.914 732.443 731.972 734.503 734.031 733.56 733.089 732.618 732.147 731.676 734.207 733.736 733.265 732.793 732.322 731.851 734.382 733.911 733.44 732.969 732.497 732.026 734.557 734.086 733.615 733.144 732.673 732.202 731.731 734.261 733.79 733.319 732.848 732.377 731.906 734.436 733.965 733.494 733.023 732.552 732.081 734.612 734.141 733.669 733.198 732.727 732.256 731.785 734.316 733.845 733.374 732.902 732.431 731.96 734.491 734.02 733.549 733.078 732.607 732.135 734.666 734.195 733.724 733.253 732.782 732.311 731.84 734.37 733.899 733.428 732.957 732.486 732.015 734.546 734.075 733.603 733.132 732.661 732.19 734.721 734.25 733.779 733.307 732.836 732.365 731.894 734.425 733.954 733.483 733.012 732.541 732.069 734.6 734.129 733.658 733.187 732.716 732.245 734.775 734.304 733.833 733.362 732.891 732.42 731.949 734.48 734.008 733.537 733.066 732.595 732.124 734.655 734.184 733.713 733.241 732.77 732.299 734.83 734.359 733.888 733.417 732.946 732.474 732.003 734.534 734.063 733.592 733.121 732.65 732.179 734.709 734.238 733.767 733.296 732.825 732.354 734.885 734.413 733.942 733.471 733 732.529 732.058 734.589 734.118 733.646 733.175 732.704 732.233 734.764 734.293 733.822 733.351 732.88 732.408 734.939 734.468 733.997 733.526 733.055 732.584 732.113 734.643 734.172 733.701 733.23 732.759 732.288 734.818 734.347 733.876 733.405 732.934 732.463 734.994 734.523 734.052 733.58 733.109 732.638 732.167 734.698 734.227 733.756 733.285 732.813 732.342 734.873 734.402 733.931 733.46 732.989 732.518 735.048 734.577 734.106 733.635 733.164 732.693 732.222 734.752 734.281 733.81 733.339 732.868 732.397 734.928 734.456 733.985 733.514 733.043 732.572 735.103 734.632 734.161 733.69 733.218 732.747 732.276 734.807 734.336 733.865 733.394 732.922 732.451 734.982 734.511 734.04 733.569 733.098 732.627 735.157 734.686 734.215 733.744 733.273 732.802 732.331 734.862 734.39 733.919 733.448 732.977 732.506 735.037 734.566 734.095 733.623 733.152 732.681 735.212 734.741 734.27 733.799 733.328 732.856 732.385 734.916 734.445 733.974 733.503 733.032 732.561 735.091 734.62 734.149 733.678 733.207 732.736 735.267 734.795 734.324 733.853 733.382 732.911 732.44 734.971 734.5 734.028 733.557 733.086 732.615 735.146 734.675 734.204 733.733 733.261 732.79 735.321 734.85 734.379 733.908 733.437 732.966 732.495 735.025 734.554 734.083 733.612 733.141 732.67 735.2 734.729 734.258 733.787 733.316 732.845 735.376 734.905 734.433 733.962 733.491 733.02 732.549 735.08 734.609 734.138 733.667 733.195 732.724 735.255 734.784 734.313 733.842 733.371 732.9 735.43 734.959 734.488 734.017 733.546 733.075 732.604 735.134 734.663 734.192 733.721 733.25 732.779 735.31 734.839 734.367 733.896 733.425 732.954 735.485 735.014 734.543
731.954 734.48 734.004 733.528 733.053 732.577 732.101 731.625 734.151 733.676 733.2 732.724 732.248 731.773 734.299 733.823 733.347 732.871 732.396 731.92 734.446 733.97 733.495 733.019 732.543 732.067 734.593 734.117 733.642 733.166 732.69 732.214 731.739 734.265 733.789 733.313 732.837 732.362 731.886 734.412 733.936 733.46 732.985 732.509 732.033 734.559 734.083 733.608 733.132 732.656 732.18 731.705 734.231 733.755 733.279 732.803 732.328 731.852 734.378 733.902 733.426 732.951 732.475 731.999 734.525 734.049 733.574 733.098 732.622 732.146 734.672 734.197 733.721 733.245 732.769 732.294 731.818 734.344 733.868 733.392 732.917 732.441 731.965 734.491 734.015 733.539 733.064 732.588 732.112 734.638 734.162 733.687 733.211 732.735 732.259 734.786 734.31 733.834 733.358 732.882 732.407 731.931 734.457 733.981 733.505 733.03 732.554 732.078 734.604 734.128 733.653 733.177 732.701 732.225 734.751 734.276 733.8 733.324 732.848 732.373 731.897 734.423 733.947 733.471 732.996 732.52 732.044 734.57 734.094 733.619 733.143 732.667 732.191 734.717 734.242 733.766 733.29 732.814 732.339 734.865 734.389 733.913 733.437 732.962 732.486 732.01 734.536 734.06 733.585 733.109 732.633 732.157 734.683 734.208 733.732 733.256 732.78 732.305 734.831 734.355 733.879 733.403 732.928 732.452 734.978 734.502 734.026 733.551 733.075 732.599 732.123 734.649 734.174 733.698 733.222 732.746 732.27 734.797 734.321 733.845 733.369 732.893 732.418 734.944 734.468 733.992 733.516 733.041 732.565 732.089 734.615 734.14 733.664 733.188 732.712 732.236 734.763 734.287 733.811 733.335 732.859 732.384 734.91 734.434 733.958 733.482 733.007 732.531 735.057 734.581 734.105 733.63 733.154 732.678 732.202 734.728 734.253 733.777 733.301 732.825 732.35 734.876 734.4 733.924 733.448 732.973 732.497 735.023 734.547 734.071 733.596 733.12 732.644 735.17 734.694 734.219 733.743 733.267 732.791 732.316 734.842 734.366 733.89 733.414 732.939 732.463 734.989 734.513 734.037 733.562 733.086 732.61 735.136 734.66 734.185 733.709 733.233 732.757 732.281 734.808 734.332 733.856 733.38 732.905 732.429 734.955 734.479 734.003 733.527 733.052 732.576 735.102 734.626 734.151 733.675 733.199 732.723 735.249 734.774 734.298 733.822 733.346 732.87 732.395 734.921 734.445 733.969 733.494 733.018 732.542 735.068 734.592 734.116 733.641 733.165 732.689 735.215 734.74 734.264 733.788 733.312 732.836 735.36 734.887 734.411 733.935 733.459 732.984 732.508 735.034 734.558 734.082 733.607 733.131 732.655 735.181 734.705 734.23 733.754 733.278 732.802 735.328 734.853 734.377 733.901 733.425 732.95 732.474 735 734.524 734.048 733.573 733.097 732.621 735.147 734.671 734.196 733.72 733.244 732.768 735.294 734.819 734.343 733.867 733.391 732.916 735.442 734.966 734.49 734.014 733.539 733.063 732.587 735.113 734.637 734.161 733.686 733.21 732.734 735.26 734.785 734.309 733.833 733.357 732.881 735.408 734.932 734.456 733.98 733.505 733.029 732.553 735.079 734.603 734.128 733.652 733.176 732.7
731.87 734.391 733.911 733.431 732.95 732.47 731.989 734.511 734.03 733.55 733.069 732.589 732.109 731.628 734.149 733.669 733.189 732.708 732.228 731.747 734.269 733.788 733.308 732.827 732.347 731.867 734.388 733.908 733.427 732.947 732.466 731.986 734.507 734.027 733.546 733.066 732.586 732.105 734.627 734.146 733.666 733.185 732.705 732.224 731.744 734.265 733.785 733.304 732.824 732.344 731.863 734.385 733.904 733.424 732.943 732.463 731.982 734.504 734.023 733.543 733.062 732.582 732.102 734.623 734.143 733.662 733.182 732.701 732.221 734.742 734.262 733.781 733.301 732.821 732.34 731.86 734.381 733.901 733.42 732.94 732.459 731.979 734.5 734.02 733.539 733.059 732.579 732.098 734.62 734.139 733.659 733.178 732.698 732.217 734.739 734.258 733.778 733.298 732.817 732.337 731.856 734.378 733.897 733.417 732.936 732.456 731.976 734.497 734.016 733.536 733.056 732.575 732.095 734.616 734.136 733.655 733.175 732.694 732.214 734.735 734.255 733.775 733.294 732.814 732.333 734.855 734.374 733.894 733.413 732.933 732.453 731.972 734.494 734.013 733.533 733.052 732.572 732.091 734.613 734.132 733.652 733.172 732.691 732.211 734.732 734.252 733.771 733.291 732.81 732.33 734.851 734.371 733.89 733.41 732.93 732.449 734.971 734.49 734.01 733.529 733.049 732.568 732.088 734.609 734.129 733.648 733.168 732.688 732.207 734.729 734.248 733.768 733.287 732.807 732.326 734.848 734.367 733.887 733.407 732.926 732.446 734.967 734.487 734.006 733.526 733.045 732.565 732.085 734.606 734.125 733.645 733.165 732.684 732.204 734.725 734.245 733.764 733.284 732.803 732.323 734.844 734.364 733.884 733.403 732.923 732.442 734.964 734.483 734.003 733.522 733.042 732.562 735.083 734.602 734.122 733.642 733.161 732.681 732.2 734.722 734.241 733.761 733.28 732.8 732.32 734.841 734.361 733.88 733.4 732.919 732.439 734.96 734.48 733.999 733.519 733.039 732.558 735.079 734.599 734.119 733.638 733.158 732.677 735.199 734.718 734.238 733.757 733.277 732.797 732.316 734.838 734.357 733.877 733.396 732.916 732.435 734.957 734.476 733.996 733.516 733.035 732.555 735.076 734.596 734.115 733.635 733.154 732.674 735.195 734.715 734.234 733.754 733.274 732.793 732.313 734.834 734.354 733.873 733.393 732.912 732.432 734.953 734.473 733.993 733.512 733.032 732.551 735.073 734.592 734.112 733.631 733.151 732.671 735.192 734.711 734.231 733.751 733.27 732.79 735.311 734.831 734.35 733.87 733.389 732.909 732.429 734.95 734.47 733.989 733.509 733.028 732.548 735.069 734.589 734.108 733.628 733.148 732.667 735.188 734.708 734.228 733.747 733.267 732.786 735.308 734.827 734.347 733.866 733.386 732.906 735.427 734.947 734.466 733.986 733.505 733.025 732.544 735.066 734.585 734.105 733.625 733.144 732.664 735.185 734.705 734.224 733.744 733.263 732.783 735.304 734.824 734.343 733.863 733.383 732.902 735.424 734.943 734.463 733.982 733.502 733.021 732.541 735.062 734.582 734.102 733.621 733.141 732.66 735.182 734.701 734.221 733.74 733.26 732.779 735.301 734.82 734.34 733.86
731.786 734.303 733.818 733.333 732.848 732.362 731.877 734.394 733.909 733.424 732.939 732.454 731.969 734.485 734 733.515 733.03 732.545 732.06 734.577 734.091 733.606 733.121 732.636 732.151 731.666 734.183 733.698 733.213 732.727 732.242 731.757 734.274 733.789 733.304 732.819 732.334 731.849 734.365 733.88 733.395 732.91 732.425 731.94 734.457 733.971 733.486 733.001 732.516 732.031 734.548 734.063 733.578 733.093 732.607 732.122 734.639 734.154 733.669 733.184 732.699 732.214 734.728 734.245 733.76 733.275 732.79 732.305 731.82 734.337 733.851 733.366 732.881 732.396 731.911 734.428 733.943 733.458 732.973 732.487 732.002 734.519 734.034 733.549 733.064 732.579 732.094 734.61 734.125 733.64 733.155 732.67 732.185 734.702 734.216 733.731 733.246 732.761 732.276 734.793 734.308 733.823 733.338 732.852 732.367 731.882 734.399 733.914 733.429 732.944 732.459 731.974 734.49 734.005 733.52 733.035 732.55 732.065 734.582 734.096 733.611 733.126 732.641 732.156 734.673 734.188 733.703 733.218 732.732 732.247 734.764 734.279 733.794 733.309 732.824 732.339 734.855 734.37 733.885 733.4 732.915 732.43 734.944 734.462 733.976 733.491 733.006 732.521 732.036 734.553 734.068 733.583 733.098 732.612 732.127 734.644 734.159 733.674 733.189 732.704 732.219 734.735 734.25 733.765 733.28 732.795 732.31 734.827 734.341 733.856 733.371 732.886 732.401 734.918 734.433 733.948 733.463 732.977 732.492 735.009 734.524 734.039 733.554 733.069 732.584 732.099 734.615 734.13 733.645 733.16 732.675 732.19 734.707 734.221 733.736 733.251 732.766 732.281 734.798 734.313 733.828 733.343 732.857 732.372 734.889 734.404 733.919 733.434 732.949 732.464 734.98 734.495 734.01 733.525 733.04 732.555 735.072 734.586 734.101 733.616 733.131 732.646 735.16 734.678 734.193 733.708 733.223 732.737 732.252 734.769 734.284 733.799 733.314 732.829 732.344 734.86 734.375 733.89 733.405 732.92 732.435 734.952 734.466 733.981 733.496 733.011 732.526 735.043 734.558 734.073 733.588 733.102 732.617 735.134 734.649 734.164 733.679 733.194 732.709 735.225 734.74 734.255 733.77 733.285 732.8 732.315 734.832 734.346 733.861 733.376 732.891 732.406 734.923 734.438 733.953 733.468 732.982 732.497 735.014 734.529 734.044 733.559 733.074 732.589 735.105 734.62 734.135 733.65 733.165 732.68 735.197 734.711 734.226 733.741 733.256 732.771 735.288 734.803 734.318 733.833 733.348 732.862 735.377 734.894 734.409 733.924 733.439 732.954 732.469 734.985 734.5 734.015 733.53 733.045 732.56 735.077 734.591 734.106 733.621 733.136 732.651 735.168 734.683 734.198 733.713 733.227 732.742 735.259 734.774 734.289 733.804 733.319 732.834 735.35 734.865 734.38 733.895 733.41 732.925 735.442 734.956 734.471 733.986 733.501 733.016 732.531 735.048 734.563 734.078 733.593 733.107 732.622 735.139 734.654 734.169 733.684 733.199 732.714 735.23 734.745 734.26 733.775 733.29 732.805 735.322 734.836 734.351 733.866 733.381 732.896 735.413 734.928 734.443 733.958 733.472 732.987 735.504 735.019
731.702 734.214 733.724 733.235 732.745 732.255 731.765 734.277 733.788 733.298 732.808 732.318 731.829 734.341 733.851 733.361 732.871 732.382 731.892 734.404 733.914 733.424 732.935 732.445 731.955 734.467 733.977 733.488 732.998 732.508 732.018 734.531 734.041 733.551 733.061 732.572 732.082 734.594 734.104 733.614 733.125 732.635 732.145 734.657 734.167 733.678 733.188 732.698 732.208 731.719 734.231 733.741 733.251 732.761 732.272 731.782 734.294 733.804 733.314 732.825 732.335 731.845 734.357 733.867 733.378 732.888 732.398 731.908 734.42 733.931 733.441 732.951 732.461 731.972 734.484 733.994 733.504 733.015 732.525 732.035 734.547 734.057 733.568 733.078 732.588 732.098 734.61 734.121 733.631 733.141 732.651 732.161 734.674 734.184 733.694 733.204 732.715 732.225 734.737 734.247 733.757 733.268 732.778 732.288 734.8 734.31 733.821 733.331 732.841 732.351 734.861 734.374 733.884 733.394 732.904 732.415 731.925 734.437 733.947 733.457 732.968 732.478 731.988 734.5 734.01 733.521 733.031 732.541 732.051 734.564 734.074 733.584 733.094 732.604 732.115 734.627 734.137 733.647 733.157 732.668 732.178 734.69 734.2 733.711 733.221 732.731 732.241 734.753 734.264 733.774 733.284 732.794 732.305 734.817 734.327 733.837 733.347 732.858 732.368 734.88 734.39 733.9 733.411 732.921 732.431 734.943 734.453 733.964 733.474 732.984 732.494 735.006 734.517 734.027 733.537 733.047 732.558 732.068 734.58 734.09 733.6 733.111 732.621 732.131 734.643 734.153 733.664 733.174 732.684 732.194 734.707 734.217 733.727 733.237 732.747 732.258 734.77 734.28 733.79 733.301 732.811 732.321 734.833 734.343 733.854 733.364 732.874 732.384 734.896 734.407 733.917 733.427 732.937 732.448 734.96 734.47 733.98 733.49 733.001 732.511 735.023 734.533 734.043 733.554 733.064 732.574 735.086 734.596 734.107 733.617 733.127 732.637 735.149 734.66 734.17 733.68 733.19 732.701 735.21 734.723 734.233 733.744 733.254 732.764 732.274 734.786 734.297 733.807 733.317 732.827 732.338 734.85 734.36 733.87 733.38 732.891 732.401 734.913 734.423 733.933 733.444 732.954 732.464 734.976 734.486 733.997 733.507 733.017 732.527 735.039 734.55 734.06 733.57 733.08 732.591 735.103 734.613 734.123 733.633 733.144 732.654 735.166 734.676 734.186 733.697 733.207 732.717 735.229 734.74 734.25 733.76 733.27 732.78 735.293 734.803 734.313 733.823 733.333 732.844 735.356 734.866 734.376 733.886 733.397 732.907 732.417 734.929 734.44 733.95 733.46 732.97 732.481 734.993 734.503 734.013 733.523 733.034 732.544 735.056 734.566 734.076 733.587 733.097 732.607 735.119 734.629 734.14 733.65 733.16 732.67 735.182 734.693 734.203 733.713 733.223 732.734 735.246 734.756 734.266 733.776 733.287 732.797 735.309 734.819 734.329 733.84 733.35 732.86 735.372 734.882 734.393 733.903 733.413 732.923 735.436 734.946 734.456 733.966 733.477 732.987 735.499 735.009 734.519 734.03 733.54 733.05 735.56 735.072 734.583 734.093 733.603 733.113 732.624 735.136 734.646 734.156 733.666 733.177
731.618 734.126 733.631 733.137 732.642 732.148 731.653 734.161 733.666 733.172 732.678 732.183 731.689 734.196 733.702 733.207 732.713 732.218 731.724 734.231 733.737 733.243 732.748 732.254 731.759 734.267 733.772 733.278 732.783 732.289 731.795 734.302 733.808 733.313 732.819 732.324 731.83 734.337 733.843 733.349 732.854 732.36 731.865 734.373 733.878 733.384 732.889 732.395 731.9 734.408 733.913 733.419 732.925 732.43 731.936 734.443 733.949 733.454 732.96 732.465 731.971 734.478 733.984 733.49 732.995 732.501 732.006 734.514 734.019 733.525 733.031 732.536 732.042 734.549 734.055 733.56 733.066 732.571 732.077 734.584 734.09 733.595 733.101 732.607 732.112 734.62 734.125 733.631 733.136 732.642 732.148 734.655 734.161 733.666 733.172 732.677 732.183 734.69 734.196 733.701 733.207 732.713 732.218 734.725 734.231 733.737 733.242 732.748 732.253 734.761 734.266 733.772 733.278 732.783 732.289 734.796 734.302 733.807 733.313 732.818 732.324 734.831 734.337 733.843 733.348 732.854 732.359 734.867 734.372 733.878 733.383 732.889 732.395 734.902 734.408 733.913 733.419 732.924 732.43 734.937 734.443 733.948 733.454 732.96 732.465 731.971 734.478 733.984 733.489 732.995 732.5 732.006 734.513 734.019 733.525 733.03 732.536 732.041 734.549 734.054 733.56 733.065 732.571 732.077 734.584 734.09 733.595 733.101 732.606 732.112 734.619 734.125 733.63 733.136 732.642 732.147 734.655 734.16 733.666 733.171 732.677 732.182 734.69 734.195 733.701 733.207 732.712 732.218 734.725 734.231 733.736 733.242 732.747 732.253 734.76 734.266 733.772 733.277 732.783 732.288 734.796 734.301 733.807 733.312 732.818 732.324 734.831 734.337 733.842 733.348 732.853 732.359 734.866 734.372 733.878 733.383 732.889 732.394 734.902 734.407 733.913 733.418 732.924 732.43 734.937 734.443 733.948 733.454 732.959 732.465 734.972 734.478 733.983 733.489 732.995 732.5 735.008 734.513 734.019 733.524 733.03 732.535 735.043 734.548 734.054 733.56 733.065 732.571 735.078 734.584 734.089 733.595 733.1 732.606 735.113 734.619 734.125 733.63 733.136 732.641 735.149 734.654 734.16 733.665 733.171 732.677 735.184 734.69 734.195 733.701 733.206 732.712 735.219 734.725 734.23 733.736 733.242 732.747 735.255 734.76 734.266 733.771 733.277 732.782 735.29 734.795 734.301 733.807 733.312 732.818 735.325 734.831 734.336 733.842 733.348 732.853 735.36 734.866 734.372 733.877 733.383 732.888 735.393 734.901 734.407 733.912 733.418 732.924 732.429 734.937 734.442 733.948 733.453 732.959 732.464 734.972 734.477 733.983 733.489 732.994 732.5 735.007 734.513 734.018 733.524 733.03 732.535 735.042 734.548 734.054 733.559 733.065 732.57 735.078 734.583 734.089 733.594 733.1 732.606 735.113 734.619 734.124 733.63 733.135 732.641 735.148 734.654 734.16 733.665 733.171 732.676 735.184 734.689 734.195 733.7 733.206 732.712 735.219 734.724 734.23 733.736 733.241 732.747 735.254 734.76 734.265 733.771 733.276 732.782 735.29 734.795 734.301 733.806 733.312 732.817 735.325 734.83 734.336
734.536 734.037 733.538 733.039 732.54 732.041 734.543 734.044 733.545 733.046 732.547 732.048 734.551 734.052 733.552 733.053 732.554 732.055 734.558 734.059 733.56 733.061 732.562 732.062 734.565 734.066 733.567 733.068 732.569 732.07 734.573 734.073 733.574 733.075 732.576 732.077 734.58 734.081 733.582 733.083 732.583 732.084 734.587 734.088 733.589 733.09 732.591 732.092 734.594 734.095 733.596 733.097 732.598 732.099 734.602 734.103 733.604 733.104 732.605 732.106 734.609 734.11 733.611 733.112 732.613 732.114 734.616 734.117 733.618 733.119 732.62 732.121 734.624 734.125 733.625 733.126 732.627 732.128 734.631 734.132 733.633 733.134 732.635 732.135 734.638 734.139 733.64 733.141 732.642 732.143 734.646 734.147 733.647 733.148 732.649 732.15 734.653 734.154 733.655 733.156 732.657 732.157 734.66 734.161 733.662 733.163 732.664 732.165 734.668 734.168 733.669 733.17 732.671 732.172 734.675 734.176 733.677 733.178 732.678 732.179 734.682 734.183 733.684 733.185 732.686 732.187 734.689 734.19 733.691 733.192 732.693 732.194 734.697 734.198 733.699 733.199 732.7 732.201 734.704 734.205 733.706 733.207 732.708 732.209 734.711 734.212 733.713 733.214 732.715 732.216 734.719 734.22 733.72 733.221 732.722 732.223 734.726 734.227 733.728 733.229 732.73 732.231 734.733 734.234 733.735 733.236 732.737 732.238 734.741 734.241 733.742 733.243 732.744 732.245 734.748 734.249 733.75 733.251 732.752 732.252 734.755 734.256 733.757 733.258 732.759 732.26 734.763 734.263 733.764 733.265 732.766 732.267 734.77 734.271 733.772 733.273 732.773 732.274 734.777 734.278 733.779 733.28 732.781 732.282 734.784 734.285 733.786 733.287 732.788 732.289 734.792 734.293 733.794 733.294 732.795 732.296 734.799 734.3 733.801 733.302 732.803 732.304 734.806 734.307 733.808 733.309 732.81 732.311 734.814 734.315 733.815 733.316 732.817 732.318 734.821 734.322 733.823 733.324 732.825 732.326 734.828 734.329 733.83 733.331 732.832 732.333 734.836 734.336 733.837 733.338 732.839 732.34 734.843 734.344 733.845 733.346 732.847 732.347 734.85 734.351 733.852 733.353 732.854 732.355 734.857 734.358 733.859 733.36 732.861 732.362 734.865 734.366 733.867 733.368 732.868 732.369 734.872 734.373 733.874 733.375 732.876 732.377 734.879 734.38 733.881 733.382 732.883 732.384 734.887 734.388 733.889 733.389 732.89 732.391 734.894 734.395 733.896 733.397 732.898 732.401 734.901 734.402 733.903 733.404 732.905 735.407 734.909 734.41 733.911 733.411 732.912 735.415 734.916 734.417 733.918 733.419 732.92 735.422 734.923 734.424 733.925 733.426 732.927 735.43 734.931 734.432 733.932 733.433 732.934 735.437 734.938 734.439 733.94 733.441 732.942 735.444 734.945 734.446 733.947 733.448 732.949 735.452 734.953 734.453 733.954 733.455 732.956 735.459 734.96 734.461 733.962 733.463 732.963 735.466 734.967 734.468 733.969 733.47 732.971 735.474 734.974 734.475 733.976 733.477 732.978 735.481 734.982 734.483 733.984 733.484 732.985 735.488 734.989 734.49 733.991 733.492 732.993 735.495
734.452 733.948 733.445 732.941 732.437 731.933 734.431 733.928 733.424 732.92 732.416 731.913 734.411 733.907 733.403 732.899 732.396 731.892 734.39 733.886 733.382 732.879 732.375 731.871 734.369 733.866 733.362 732.858 732.354 731.851 734.349 733.845 733.341 732.837 732.334 731.83 734.328 733.824 733.32 732.817 732.313 731.809 734.307 733.804 733.3 732.796 732.292 731.789 734.287 733.783 733.279 732.775 732.272 731.768 734.266 733.762 733.258 732.755 732.251 731.747 734.245 733.741 733.238 732.734 732.23 734.728 734.225 733.721 733.217 732.713 732.21 734.708 734.204 733.7 733.196 732.693 732.189 734.687 734.183 733.679 733.176 732.672 732.168 734.666 734.162 733.659 733.155 732.651 732.148 734.646 734.142 733.638 733.134 732.631 732.127 734.625 734.121 733.617 733.114 732.61 732.106 734.604 734.1 733.597 733.093 732.589 732.086 734.584 734.08 733.576 733.072 732.569 732.065 734.563 734.059 733.555 733.052 732.548 732.044 734.542 734.038 733.535 733.031 732.527 732.023 734.522 734.018 733.514 733.01 732.506 732.003 734.501 733.997 733.493 732.99 732.486 731.982 734.48 733.976 733.473 732.969 732.465 734.961 734.459 733.956 733.452 732.948 732.444 734.943 734.439 733.935 733.431 732.928 732.424 734.922 734.418 733.914 733.411 732.907 732.403 734.901 734.397 733.894 733.39 732.886 732.382 734.88 734.377 733.873 733.369 732.865 732.362 734.86 734.356 733.852 733.349 732.845 732.341 734.839 734.335 733.832 733.328 732.824 732.32 734.818 734.315 733.811 733.307 732.803 732.3 734.798 734.294 733.79 733.286 732.783 732.279 734.777 734.273 733.77 733.266 732.762 732.258 734.756 734.253 733.749 733.245 732.741 732.238 734.736 734.232 733.728 733.224 732.721 732.217 734.715 734.211 733.708 733.204 732.7 732.196 734.694 734.191 733.687 733.183 732.679 735.177 734.674 734.17 733.666 733.162 732.659 735.157 734.653 734.149 733.646 733.142 732.638 735.136 734.632 734.129 733.625 733.121 732.617 735.115 734.612 734.108 733.604 733.1 732.597 735.095 734.591 734.087 733.583 733.08 732.576 735.074 734.57 734.067 733.563 733.059 732.555 735.053 734.55 734.046 733.542 733.038 732.535 735.033 734.529 734.025 733.521 733.018 732.514 735.012 734.508 734.005 733.501 732.997 732.493 734.991 734.488 733.984 733.48 732.976 732.473 734.971 734.467 733.963 733.459 732.956 732.452 734.95 734.446 733.943 733.439 732.935 732.431 734.929 734.426 733.922 733.418 732.914 735.41 734.909 734.405 733.901 733.397 732.894 735.392 734.888 734.384 733.88 733.377 732.873 735.371 734.867 734.364 733.86 733.356 732.852 735.35 734.847 734.343 733.839 733.335 732.832 735.33 734.826 734.322 733.818 733.315 732.811 735.309 734.805 734.302 733.798 733.294 732.79 735.288 734.785 734.281 733.777 733.273 732.77 735.268 734.764 734.26 733.756 733.253 732.749 735.247 734.743 734.239 733.736 733.232 732.728 735.226 734.723 734.219 733.715 733.211 732.707 735.206 734.702 734.198 733.694 733.191 732.687 735.185 734.681 734.177 733.674 733.17 732.666 735.164 734.661 734.157 733.653
734.368 733.86 733.351 732.843 732.334 731.826 734.319 733.811 733.303 732.794 732.286 731.777 734.271 733.762 733.254 732.745 732.237 731.729 734.222 733.714 733.205 732.697 732.188 731.68 734.173 733.665 733.157 732.648 732.14 734.633 734.125 733.616 733.108 732.599 732.091 734.585 734.076 733.568 733.059 732.551 732.042 734.536 734.027 733.519 733.011 732.502 731.994 734.487 733.979 733.47 732.962 732.453 731.945 734.439 733.93 733.422 732.913 732.405 731.896 734.39 733.881 733.373 732.865 732.356 731.848 734.341 733.833 733.324 732.816 732.307 731.799 734.293 733.784 733.276 732.767 732.259 734.752 734.244 733.735 733.227 732.719 732.21 734.704 734.195 733.687 733.178 732.67 732.161 734.655 734.147 733.638 733.13 732.621 732.113 734.606 734.098 733.589 733.081 732.573 732.064 734.558 734.049 733.541 733.032 732.524 732.016 734.509 734.001 733.492 732.984 732.475 731.967 734.46 733.952 733.443 732.935 732.427 731.918 734.412 733.903 733.395 732.886 732.378 734.871 734.363 733.854 733.346 732.838 732.329 734.823 734.314 733.806 733.297 732.789 732.281 734.774 734.266 733.757 733.249 732.74 732.232 734.725 734.217 733.708 733.2 732.692 732.183 734.677 734.168 733.66 733.151 732.643 732.135 734.628 734.12 733.611 733.103 732.594 732.086 734.579 734.071 733.562 733.054 732.546 732.038 734.531 734.022 733.514 733.005 732.497 734.99 734.482 733.974 733.465 732.957 732.448 734.942 734.433 733.925 733.417 732.908 732.4 734.893 734.385 733.876 733.368 732.859 732.351 734.844 734.336 733.828 733.319 732.811 732.302 734.796 734.287 733.779 733.271 732.762 732.254 734.747 734.239 733.73 733.222 732.713 732.205 734.698 734.19 733.682 733.173 732.665 735.158 734.65 734.141 733.633 733.125 732.616 735.109 734.601 734.093 733.584 733.076 732.567 735.061 734.552 734.044 733.536 733.027 732.519 735.012 734.504 733.995 733.487 732.979 732.47 734.964 734.455 733.947 733.438 732.93 732.421 734.915 734.406 733.898 733.39 732.881 732.373 734.866 734.358 733.849 733.341 732.833 732.324 734.818 734.309 733.801 733.292 732.784 735.277 734.769 734.26 733.752 733.244 732.735 735.229 734.72 734.212 733.703 733.195 732.687 735.18 734.672 734.163 733.655 733.146 732.638 735.131 734.623 734.114 733.606 733.098 732.589 735.083 734.574 734.066 733.557 733.049 732.541 735.034 734.526 734.017 733.509 733 732.492 734.985 734.477 733.968 733.46 732.952 732.443 734.937 734.428 733.92 733.411 732.903 735.396 734.888 734.38 733.871 733.363 732.854 735.348 734.839 734.331 733.822 733.314 732.806 735.299 734.791 734.282 733.774 733.265 732.757 735.25 734.742 734.234 733.725 733.217 732.708 735.202 734.693 734.185 733.676 733.168 732.66 735.153 734.645 734.136 733.628 733.119 732.611 735.104 734.596 734.088 733.579 733.071 732.562 735.056 734.547 734.039 733.53 733.022 735.516 735.007 734.499 733.99 733.482 732.973 735.467 734.958 734.45 733.942 733.433 732.925 735.418 734.91 734.401 733.893 733.384 732.876 735.37 734.861 734.353 733.844 733.336 732.827 735.321 734.812
734.284 733.771 733.258 732.745 732.232 731.719 734.207 733.694 733.181 732.668 732.155 731.642 734.131 733.618 733.105 732.592 732.078 734.567 734.054 733.541 733.028 732.515 732.002 734.491 733.977 733.464 732.951 732.438 731.925 734.414 733.901 733.388 732.875 732.362 731.849 734.337 733.824 733.311 732.798 732.285 731.772 734.261 733.748 733.234 732.721 732.208 734.695 734.184 733.671 733.158 732.645 732.132 734.62 734.107 733.594 733.081 732.568 732.055 734.544 734.031 733.518 733.005 732.491 731.978 734.467 733.954 733.441 732.928 732.415 731.902 734.391 733.877 733.364 732.851 732.338 731.825 734.314 733.801 733.288 732.775 732.261 734.75 734.237 733.724 733.211 732.698 732.185 734.674 734.161 733.647 733.134 732.621 732.108 734.597 734.084 733.571 733.058 732.545 732.031 734.52 734.007 733.494 732.981 732.468 731.955 734.444 733.931 733.417 732.904 732.391 734.877 734.367 733.854 733.341 732.828 732.315 734.803 734.29 733.777 733.264 732.751 732.238 734.727 734.214 733.701 733.188 732.674 732.161 734.65 734.137 733.624 733.111 732.598 732.085 734.573 734.06 733.547 733.034 732.521 732.008 734.497 733.984 733.471 732.958 732.444 734.933 734.42 733.907 733.394 732.881 732.368 734.857 734.344 733.83 733.317 732.804 732.291 734.78 734.267 733.754 733.241 732.728 732.214 734.703 734.19 733.677 733.164 732.651 732.138 734.627 734.114 733.6 733.087 732.574 735.06 734.55 734.037 733.524 733.011 732.498 734.986 734.473 733.96 733.447 732.934 732.421 734.91 734.397 733.884 733.37 732.857 732.344 734.833 734.32 733.807 733.294 732.781 732.268 734.756 734.243 733.73 733.217 732.704 732.191 734.68 734.167 733.654 733.141 732.627 735.116 734.603 734.09 733.577 733.064 732.551 735.04 734.526 734.013 733.5 732.987 732.474 734.963 734.45 733.937 733.424 732.911 732.398 734.886 734.373 733.86 733.347 732.834 732.321 734.81 734.297 733.783 733.27 732.757 735.243 734.733 734.22 733.707 733.194 732.681 735.169 734.656 734.143 733.63 733.117 732.604 735.093 734.58 734.067 733.553 733.04 732.527 735.016 734.503 733.99 733.477 732.964 732.451 734.939 734.426 733.913 733.4 732.887 732.374 734.863 734.35 733.837 733.323 732.81 735.299 734.786 734.273 733.76 733.247 732.734 735.223 734.709 734.196 733.683 733.17 732.657 735.146 734.633 734.12 733.607 733.094 732.58 735.069 734.556 734.043 733.53 733.017 732.504 734.993 734.479 733.966 733.453 732.94 735.426 734.916 734.403 733.89 733.377 732.864 735.352 734.839 734.326 733.813 733.3 732.787 735.276 734.763 734.25 733.736 733.223 732.71 735.199 734.686 734.173 733.66 733.147 732.634 735.122 734.609 734.096 733.583 733.07 732.557 735.046 734.533 734.02 733.506 732.993 735.482 734.969 734.456 733.943 733.43 732.917 735.406 734.892 734.379 733.866 733.353 732.84 735.329 734.816 734.303 733.79 733.276 732.763 735.252 734.739 734.226 733.713 733.2 732.687 735.176 734.662 734.149 733.636 733.123 735.609 735.099 734.586 734.073 733.56 733.047 735.535 735.022 734.509 733.996 733.483 732.97
734.2 733.682 733.165 732.647 732.129 731.611 734.096 733.578 733.06 732.542 732.025 734.509 733.991 733.473 732.955 732.438 731.92 734.404 733.886 733.369 732.851 732.333 731.815 734.299 733.782 733.264 732.746 732.228 731.711 734.195 733.677 733.159 732.641 732.124 734.608 734.09 733.572 733.055 732.537 732.019 734.503 733.985 733.468 732.95 732.432 731.914 734.399 733.881 733.363 732.845 732.328 731.81 734.294 733.776 733.258 732.741 732.223 734.707 734.189 733.672 733.154 732.636 732.118 734.602 734.085 733.567 733.049 732.531 732.014 734.498 733.98 733.462 732.944 732.427 731.909 734.393 733.875 733.358 732.84 732.322 731.805 734.288 733.771 733.253 732.735 732.217 734.702 734.184 733.666 733.148 732.631 732.113 734.597 734.079 733.561 733.044 732.526 732.008 734.492 733.975 733.457 732.939 732.421 731.904 734.388 733.87 733.352 732.834 732.317 734.801 734.283 733.765 733.247 732.73 732.212 734.696 734.178 733.661 733.143 732.625 732.107 734.591 734.074 733.556 733.038 732.521 732.003 734.487 733.969 733.451 732.934 732.416 734.9 734.382 733.865 733.347 732.829 732.311 734.795 734.278 733.76 733.242 732.724 732.207 734.691 734.173 733.655 733.137 732.62 732.102 734.586 734.068 733.551 733.033 732.515 734.999 734.481 733.964 733.446 732.928 732.41 734.894 734.377 733.859 733.341 732.823 732.306 734.79 734.272 733.754 733.237 732.719 732.201 734.685 734.167 733.65 733.132 732.614 732.097 734.581 734.063 733.545 733.027 732.51 734.994 734.476 733.958 733.44 732.923 732.405 734.889 734.371 733.854 733.336 732.818 732.3 734.784 734.267 733.749 733.231 732.713 732.196 734.68 734.162 733.644 733.127 732.609 735.093 734.575 734.057 733.54 733.022 732.504 734.988 734.47 733.953 733.435 732.917 732.4 734.884 734.366 733.848 733.33 732.813 732.295 734.779 734.261 733.744 733.226 732.708 735.192 734.674 734.157 733.639 733.121 732.603 735.087 734.57 734.052 733.534 733.016 732.499 734.983 734.465 733.947 733.43 732.912 732.394 734.878 734.36 733.843 733.325 732.807 735.291 734.774 734.256 733.738 733.22 732.703 735.187 734.669 734.151 733.633 733.116 732.598 735.082 734.564 734.047 733.529 733.011 732.493 734.977 734.46 733.942 733.424 732.906 732.389 734.873 734.355 733.837 733.319 732.802 735.286 734.768 734.25 733.733 733.215 732.697 735.181 734.663 734.146 733.628 733.11 732.592 735.077 734.559 734.041 733.523 733.006 732.488 734.972 734.454 733.936 733.419 732.901 735.385 734.867 734.349 733.832 733.314 732.796 735.28 734.763 734.245 733.727 733.209 732.692 735.176 734.658 734.14 733.622 733.105 732.587 735.071 734.553 734.036 733.518 733 735.484 734.966 734.449 733.931 733.413 732.895 735.38 734.862 734.344 733.826 733.309 732.791 735.275 734.757 734.239 733.722 733.204 732.686 735.17 734.653 734.135 733.617 733.099 732.584 735.066 734.548 734.03 733.512 732.995 735.479 734.961 734.443 733.926 733.408 732.89 735.374 734.856 734.339 733.821 733.303 732.785 735.269 734.752 734.234 733.716 733.198 732.681 735.165 734.647 734.129
734.116 733.594 733.071 732.549 732.027 734.506 733.984 733.461 732.939 732.416 731.894 734.373 733.851 733.328 732.806 732.284 731.761 734.241 733.718 733.196 732.673 732.151 734.628 734.108 733.586 733.063 732.541 732.018 734.498 733.975 733.453 732.931 732.408 731.886 734.365 733.843 733.32 732.798 732.276 731.753 734.233 733.71 733.188 732.665 732.143 734.622 734.1 733.578 733.055 732.533 732.01 734.49 733.967 733.445 732.923 732.4 731.878 734.357 733.835 733.312 732.79 732.268 734.744 734.225 733.702 733.18 732.657 732.135 734.614 734.092 733.57 733.047 732.525 732.002 734.482 733.959 733.437 732.914 732.392 731.87 734.349 733.827 733.304 732.782 732.259 734.739 734.216 733.694 733.172 732.649 732.127 734.606 734.084 733.561 733.039 732.517 731.994 734.474 733.951 733.429 732.906 732.384 734.861 734.341 733.819 733.296 732.774 732.251 734.731 734.208 733.686 733.164 732.641 732.119 734.598 734.076 733.553 733.031 732.509 731.986 734.466 733.943 733.421 732.898 732.376 734.855 734.333 733.81 733.288 732.766 732.243 734.723 734.2 733.678 733.156 732.633 732.111 734.59 734.068 733.545 733.023 732.5 734.977 734.457 733.935 733.413 732.89 732.368 734.847 734.325 733.802 733.28 732.758 732.235 734.715 734.192 733.67 733.147 732.625 732.103 734.582 734.06 733.537 733.015 732.492 734.972 734.449 733.927 733.405 732.882 732.36 734.839 734.317 733.794 733.272 732.75 732.227 734.707 734.184 733.662 733.139 732.617 735.094 734.574 734.052 733.529 733.007 732.484 734.964 734.441 733.919 733.396 732.874 732.352 734.831 734.309 733.786 733.264 732.741 732.219 734.698 734.176 733.654 733.131 732.609 735.088 734.566 734.043 733.521 732.999 732.476 734.956 734.433 733.911 733.388 732.866 732.344 734.823 734.301 733.778 733.256 732.733 735.21 734.69 734.168 733.646 733.123 732.601 735.08 734.558 734.035 733.513 732.99 732.468 734.948 734.425 733.903 733.38 732.858 732.335 734.815 734.292 733.77 733.248 732.725 735.205 734.682 734.16 733.637 733.115 732.593 735.072 734.55 734.027 733.505 732.982 732.46 734.939 734.417 733.895 733.372 732.85 735.327 734.807 734.284 733.762 733.24 732.717 735.197 734.674 734.152 733.629 733.107 732.585 735.064 734.542 734.019 733.497 732.974 732.452 734.931 734.409 733.886 733.364 732.842 735.321 734.799 734.276 733.754 733.232 732.709 735.188 734.666 734.144 733.621 733.099 732.576 735.056 734.533 734.011 733.489 732.966 735.443 734.923 734.401 733.878 733.356 732.834 735.313 734.791 734.268 733.746 733.223 732.701 735.18 734.658 734.136 733.613 733.091 732.568 735.048 734.525 734.003 733.481 732.958 735.438 734.915 734.393 733.87 733.348 732.826 735.305 734.783 734.26 733.738 733.215 732.693 735.172 734.65 734.128 733.605 733.083 735.56 735.04 734.517 733.995 733.472 732.95 735.429 734.907 734.385 733.862 733.34 732.817 735.297 734.774 734.252 733.73 733.207 732.685 735.164 734.642 734.119 733.597 733.075 735.554 735.032 734.509 733.987 733.464 732.942 735.421 734.899 734.377 733.854 733.332 732.809 735.289
734.032 733.505 732.978 732.451 731.924 734.399 733.872 733.345 732.818 732.29 731.763 734.238 733.711 733.184 732.657 732.13 734.605 734.078 733.55 733.023 732.496 731.969 734.444 733.917 733.39 732.863 732.336 731.809 734.283 733.756 733.229 732.702 732.175 734.65 734.123 733.596 733.069 732.542 732.014 734.489 733.962 733.435 732.908 732.381 731.854 734.329 733.802 733.274 732.747 732.22 734.695 734.168 733.641 733.114 732.587 732.06 734.534 734.007 733.48 732.953 732.426 731.899 734.374 733.847 733.32 732.793 732.266 734.74 734.213 733.686 733.159 732.632 732.105 734.58 734.053 733.526 732.998 732.471 731.944 734.419 733.892 733.365 732.838 732.311 734.786 734.258 733.731 733.204 732.677 732.15 734.625 734.098 733.571 733.044 732.517 731.99 734.464 733.937 733.41 732.883 732.356 734.831 734.304 733.777 733.25 732.723 732.195 734.67 734.143 733.616 733.089 732.562 732.035 734.51 733.982 733.455 732.928 732.401 734.876 734.349 733.822 733.295 732.768 732.241 734.715 734.188 733.661 733.134 732.607 732.08 734.555 734.028 733.501 732.974 732.447 734.921 734.394 733.867 733.34 732.813 732.286 734.761 734.234 733.706 733.179 732.652 732.125 734.6 734.073 733.546 733.019 732.492 734.966 734.439 733.912 733.385 732.858 732.331 734.806 734.279 733.752 733.225 732.698 732.171 734.645 734.118 733.591 733.064 732.537 735.012 734.485 733.958 733.431 732.903 732.376 734.851 734.324 733.797 733.27 732.743 732.216 734.691 734.163 733.636 733.109 732.582 735.057 734.53 734.003 733.476 732.949 732.422 734.896 734.369 733.842 733.315 732.788 732.261 734.736 734.209 733.682 733.155 732.627 735.102 734.575 734.048 733.521 732.994 732.467 734.942 734.415 733.887 733.36 732.833 732.306 734.781 734.254 733.727 733.2 732.673 735.147 734.62 734.093 733.566 733.039 732.512 734.987 734.46 733.933 733.406 732.879 732.351 734.826 734.299 733.772 733.245 732.718 735.193 734.666 734.139 733.611 733.084 732.557 735.032 734.505 733.978 733.451 732.924 732.397 734.871 734.344 733.817 733.29 732.763 735.238 734.711 734.184 733.657 733.13 732.603 735.077 734.55 734.023 733.496 732.969 732.442 734.917 734.39 733.863 733.336 732.808 735.283 734.756 734.229 733.702 733.175 732.648 735.123 734.595 734.068 733.541 733.014 732.487 734.962 734.435 733.908 733.381 732.854 735.328 734.801 734.274 733.747 733.22 732.693 735.168 734.641 734.114 733.587 733.06 732.532 735.007 734.48 733.953 733.426 732.899 735.374 734.847 734.319 733.792 733.265 732.738 735.213 734.686 734.159 733.632 733.105 732.578 735.052 734.525 733.998 733.471 732.944 735.419 734.892 734.365 733.838 733.311 732.784 735.258 734.731 734.204 733.677 733.15 732.623 735.098 734.571 734.044 733.516 732.989 735.464 734.937 734.41 733.883 733.356 732.829 735.304 734.776 734.249 733.722 733.195 732.668 735.143 734.616 734.089 733.562 733.035 735.509 734.982 734.455 733.928 733.401 732.874 735.349 734.822 734.295 733.768 733.24 732.713 735.188 734.661 734.134 733.607 733.08 735.555 735.028 734.5 733.973 733.446
733.948 733.417 732.885 732.353 731.821 734.291 733.76 733.228 732.696 732.164 731.633 734.103 733.571 733.039 732.508 731.976 734.446 733.914 733.382 732.851 732.319 731.787 734.257 733.726 733.194 732.662 732.13 734.601 734.069 733.537 733.005 732.474 731.942 734.412 733.88 733.349 732.817 732.285 731.753 734.223 733.692 733.16 732.628 732.096 734.566 734.035 733.503 732.971 732.44 731.908 734.378 733.846 733.314 732.783 732.251 734.721 734.189 733.658 733.126 732.594 732.062 734.532 734.001 733.469 732.937 732.405 731.874 734.344 733.812 733.28 732.749 732.217 734.687 734.155 733.623 733.092 732.56 732.028 734.498 733.967 733.435 732.903 732.371 731.84 734.31 733.778 733.246 732.715 732.183 734.653 734.121 733.589 733.058 732.526 731.994 734.464 733.933 733.401 732.869 732.337 734.807 734.276 733.744 733.212 732.681 732.149 734.619 734.087 733.555 733.024 732.492 731.96 734.43 733.899 733.367 732.835 732.303 734.773 734.242 733.71 733.178 732.646 732.115 734.585 734.053 733.521 732.99 732.458 734.928 734.396 733.865 733.333 732.801 732.269 734.739 734.208 733.676 733.144 732.612 732.081 734.551 734.019 733.487 732.956 732.424 734.894 734.362 733.83 733.299 732.767 732.235 734.705 734.174 733.642 733.11 732.578 732.047 734.517 733.985 733.453 732.922 732.39 734.86 734.328 733.796 733.265 732.733 732.201 734.671 734.14 733.608 733.076 732.544 735.014 734.483 733.951 733.419 732.887 732.356 734.826 734.294 733.762 733.231 732.699 732.167 734.637 734.105 733.574 733.042 732.51 734.98 734.449 733.917 733.385 732.853 732.322 734.792 734.26 733.728 733.197 732.665 735.135 734.603 734.071 733.54 733.008 732.476 734.946 734.415 733.883 733.351 732.819 732.288 734.758 734.226 733.694 733.162 732.631 735.101 734.569 734.037 733.506 732.974 732.442 734.912 734.38 733.849 733.317 732.785 732.254 734.724 734.192 733.66 733.128 732.597 735.067 734.535 734.003 733.472 732.94 732.408 734.878 734.346 733.815 733.283 732.751 735.221 734.69 734.158 733.626 733.094 732.563 735.033 734.501 733.969 733.438 732.906 732.374 734.844 734.312 733.781 733.249 732.717 735.187 734.656 734.124 733.592 733.06 732.529 734.999 734.467 733.935 733.403 732.872 735.342 734.81 734.278 733.747 733.215 732.683 735.153 734.621 734.09 733.558 733.026 732.495 734.965 734.433 733.901 733.369 732.838 735.308 734.776 734.244 733.713 733.181 732.649 735.119 734.587 734.056 733.524 732.992 735.46 734.931 734.399 733.867 733.335 732.804 735.274 734.742 734.21 733.678 733.147 732.615 735.085 734.553 734.022 733.49 732.958 735.428 734.896 734.365 733.833 733.301 732.77 735.24 734.708 734.176 733.644 733.113 732.581 735.051 734.519 733.988 733.456 732.924 735.394 734.862 734.331 733.799 733.267 732.735 735.206 734.674 734.142 733.61 733.079 735.549 735.017 734.485 733.953 733.422 732.89 735.36 734.828 734.297 733.765 733.233 732.701 735.172 734.64 734.108 733.576 733.045 735.515 734.983 734.451 733.919 733.388 732.856 735.326 734.794 734.263 733.731 733.199 735.669 735.137 734.606
733.864 733.328 732.792 732.255 731.719 734.184 733.648 733.111 732.575 732.039 734.504 733.968 733.431 732.895 732.358 731.822 734.287 733.751 733.215 732.678 732.142 734.607 734.071 733.534 732.998 732.462 731.925 734.391 733.854 733.318 732.781 732.245 731.709 734.174 733.638 733.101 732.565 732.028 734.494 733.957 733.421 732.885 732.348 731.812 734.277 733.741 733.204 732.668 732.132 734.597 734.061 733.524 732.988 732.452 731.915 734.38 733.844 733.308 732.771 732.235 734.7 734.164 733.628 733.091 732.555 732.018 734.484 733.947 733.411 732.875 732.338 731.802 734.267 733.731 733.194 732.658 732.122 734.587 734.051 733.514 732.978 732.441 731.905 734.37 733.834 733.298 732.761 732.225 734.69 734.154 733.617 733.081 732.545 732.008 734.474 733.937 733.401 732.864 732.328 734.793 734.257 733.721 733.184 732.648 732.111 734.577 734.04 733.504 732.968 732.431 734.894 734.36 733.824 733.287 732.751 732.215 734.68 734.144 733.607 733.071 732.535 731.998 734.464 733.927 733.391 732.854 732.318 734.783 734.247 733.711 733.174 732.638 732.101 734.567 734.03 733.494 732.958 732.421 734.887 734.35 733.814 733.277 732.741 732.205 734.67 734.134 733.597 733.061 732.524 734.99 734.453 733.917 733.381 732.844 732.308 734.773 734.237 733.7 733.164 732.628 732.091 734.557 734.02 733.484 732.947 732.411 734.876 734.34 733.804 733.267 732.731 732.194 734.66 734.123 733.587 733.051 732.514 734.98 734.443 733.907 733.37 732.834 732.298 734.763 734.227 733.69 733.154 732.618 735.083 734.547 734.01 733.474 732.937 732.401 734.866 734.33 733.794 733.257 732.721 732.184 734.65 734.113 733.577 733.041 732.504 734.97 734.433 733.897 733.36 732.824 732.288 734.753 734.217 733.68 733.144 732.607 735.073 734.536 734 733.464 732.927 732.391 734.856 734.32 733.783 733.247 732.711 735.176 734.64 734.103 733.567 733.03 732.494 734.959 734.423 733.887 733.35 732.814 735.277 734.743 734.206 733.67 733.134 732.597 735.063 734.526 733.99 733.453 732.917 732.381 734.846 734.31 733.773 733.237 732.701 735.166 734.63 734.093 733.557 733.02 732.484 734.949 734.413 733.877 733.34 732.804 735.269 734.733 734.196 733.66 733.124 732.587 735.053 734.516 733.98 733.443 732.907 735.372 734.836 734.3 733.763 733.227 732.69 735.156 734.62 734.083 733.547 733.01 732.474 734.939 734.403 733.866 733.33 732.794 735.259 734.723 734.186 733.65 733.113 732.577 735.042 734.506 733.97 733.433 732.897 735.362 734.826 734.289 733.753 733.217 732.68 735.146 734.609 734.073 733.536 733 735.466 734.929 734.393 733.856 733.32 732.784 735.249 734.713 734.176 733.64 733.103 732.567 735.032 734.496 733.96 733.423 732.887 735.352 734.816 734.279 733.743 733.207 732.67 735.136 734.599 734.063 733.526 732.99 735.455 734.919 734.383 733.846 733.31 732.773 735.239 734.703 734.166 733.63 733.093 735.559 735.022 734.486 733.949 733.413 732.877 735.342 734.806 734.269 733.733 733.196 735.659 735.125 734.589 734.053 733.516 732.98 735.445 734.909 734.372 733.836 733.3 732.763
733.78 733.239 732.698 732.157 731.616 734.077 733.536 732.995 732.454 731.913 734.373 733.832 733.291 732.75 732.209 731.668 734.129 733.588 733.047 732.506 731.964 734.425 733.884 733.343 732.802 732.261 731.72 734.181 733.64 733.099 732.557 732.016 734.477 733.936 733.395 732.854 732.313 731.772 734.233 733.692 733.151 732.609 732.068 734.529 733.988 733.447 732.906 732.365 731.824 734.285 733.744 733.203 732.661 732.12 734.581 734.04 733.499 732.958 732.417 731.876 734.337 733.795 733.254 732.713 732.172 734.633 734.092 733.551 733.01 732.469 731.928 734.388 733.847 733.306 732.765 732.224 734.685 734.144 733.603 733.062 732.521 731.98 734.44 733.899 733.358 732.817 732.276 734.737 734.196 733.655 733.114 732.573 732.031 734.492 733.951 733.41 732.869 732.328 734.789 734.248 733.707 733.166 732.625 732.083 734.544 734.003 733.462 732.921 732.38 734.841 734.3 733.759 733.218 732.676 732.135 734.596 734.055 733.514 732.973 732.432 734.893 734.352 733.81 733.269 732.728 732.187 734.648 734.107 733.566 733.025 732.484 734.945 734.404 733.862 733.321 732.78 732.239 734.7 734.159 733.618 733.077 732.536 734.994 734.455 733.914 733.373 732.832 732.291 734.752 734.211 733.67 733.129 732.588 732.047 734.507 733.966 733.425 732.884 732.343 734.804 734.263 733.722 733.181 732.64 732.099 734.559 734.018 733.477 732.936 732.395 734.856 734.315 733.774 733.233 732.692 732.15 734.611 734.07 733.529 732.988 732.447 734.908 734.367 733.826 733.285 732.743 732.202 734.663 734.122 733.581 733.04 732.499 734.96 734.419 733.878 733.336 732.795 732.254 734.715 734.174 733.633 733.092 732.551 735.012 734.47 733.929 733.388 732.847 732.306 734.767 734.226 733.685 733.144 732.603 735.064 734.522 733.981 733.44 732.899 732.358 734.819 734.278 733.737 733.196 732.655 735.115 734.574 734.033 733.492 732.951 732.41 734.871 734.33 733.789 733.248 732.707 735.167 734.626 734.085 733.544 733.003 732.462 734.923 734.382 733.841 733.3 732.759 735.219 734.678 734.137 733.596 733.055 732.514 734.975 734.434 733.893 733.352 732.81 735.271 734.73 734.189 733.648 733.107 732.566 735.027 734.486 733.944 733.403 732.862 735.323 734.782 734.241 733.7 733.159 732.618 735.079 734.537 733.996 733.455 732.914 735.375 734.834 734.293 733.752 733.211 732.67 735.13 734.589 734.048 733.507 732.966 735.427 734.886 734.345 733.804 733.263 732.722 735.182 734.641 734.1 733.559 733.018 735.476 734.938 734.397 733.856 733.315 732.774 735.234 734.693 734.152 733.611 733.07 732.529 734.99 734.449 733.908 733.367 732.826 735.286 734.745 734.204 733.663 733.122 732.581 735.042 734.501 733.96 733.419 732.877 735.338 734.797 734.256 733.715 733.174 732.633 735.094 734.553 734.011 733.47 732.929 735.39 734.849 734.308 733.767 733.226 732.685 735.146 734.604 734.063 733.522 732.981 735.442 734.901 734.36 733.819 733.278 732.737 735.198 734.656 734.115 733.574 733.033 735.494 734.953 734.412 733.871 733.33 732.789 735.249 734.708 734.167 733.626 733.085 735.546 735.005 734.464 733.923
733.696 733.151 732.605 732.059 734.515 733.97 733.424 732.878 732.332 731.787 734.243 733.697 733.151 732.606 732.06 734.516 733.97 733.424 732.879 732.333 731.787 734.243 733.698 733.152 732.606 732.06 734.517 733.971 733.425 732.879 732.334 731.788 734.244 733.698 733.153 732.607 732.061 734.517 733.971 733.426 732.88 732.334 731.789 734.245 733.699 733.153 732.607 732.062 734.518 733.972 733.426 732.881 732.335 731.789 734.245 733.7 733.154 732.608 732.062 734.518 733.973 733.427 732.881 732.336 731.79 734.246 733.7 733.154 732.609 732.063 734.519 733.973 733.428 732.882 732.336 734.792 734.246 733.701 733.155 732.609 732.064 734.52 733.974 733.428 732.882 732.337 734.793 734.247 733.701 733.156 732.61 732.064 734.52 733.975 733.429 732.883 732.337 734.793 734.248 733.702 733.156 732.61 732.065 734.521 733.975 733.429 732.884 732.338 734.794 734.248 733.703 733.157 732.611 732.065 734.522 733.976 733.43 732.884 732.339 734.795 734.249 733.703 733.157 732.612 732.066 734.522 733.976 733.431 732.885 732.339 734.795 734.25 733.704 733.158 732.612 732.067 734.523 733.977 733.431 732.886 732.34 734.796 734.25 733.704 733.159 732.613 732.067 734.523 733.978 733.432 732.886 732.34 734.797 734.251 733.705 733.159 732.614 732.068 734.524 733.978 733.432 732.887 732.341 734.797 734.251 733.706 733.16 732.614 735.07 734.525 733.979 733.433 732.887 732.342 734.798 734.252 733.706 733.161 732.615 735.071 734.525 733.979 733.434 732.888 732.342 734.798 734.253 733.707 733.161 732.615 735.072 734.526 733.98 733.434 732.889 732.343 734.799 734.253 733.708 733.162 732.616 735.072 734.526 733.981 733.435 732.889 732.344 734.8 734.254 733.708 733.162 732.617 735.073 734.527 733.981 733.436 732.89 732.344 734.8 734.255 733.709 733.163 732.617 735.073 734.528 733.982 733.436 732.891 732.345 734.801 734.255 733.709 733.164 732.618 735.074 734.528 733.983 733.437 732.891 732.345 734.802 734.256 733.71 733.164 732.619 735.075 734.529 733.983 733.438 732.892 732.346 734.802 734.256 733.711 733.165 732.619 735.075 734.53 733.984 733.438 732.892 735.349 734.803 734.257 733.711 733.166 732.62 735.076 734.53 733.984 733.439 732.893 735.349 734.803 734.258 733.712 733.166 732.62 735.077 734.531 733.985 733.439 732.894 735.35 734.804 734.258 733.713 733.167 732.621 735.077 734.531 733.986 733.44 732.894 735.35 734.805 734.259 733.713 733.167 732.622 735.078 734.532 733.986 733.441 732.895 735.351 734.805 734.26 733.714 733.168 732.622 735.078 734.533 733.987 733.441 732.895 735.352 734.806 734.26 733.714 733.169 732.623 735.079 734.533 733.988 733.442 732.896 735.352 734.807 734.261 733.715 733.169 732.624 735.08 734.534 733.988 733.442 732.897 735.353 734.807 734.261 733.716 733.17 732.624 735.08 734.535 733.989 733.443 732.897 735.353 734.808 734.262 733.716 733.171 735.627 735.081 734.535 733.989 733.444 732.898 735.354 734.808 734.263 733.717 733.171 735.627 735.081 734.536 733.99 733.444 732.899 735.355 734.809 734.263 733.718 733.172 735.628 735.082
733.612 733.062 732.512 731.961 734.413 733.862 733.312 732.761 732.211 731.661 734.112 733.562 733.011 732.461 731.911 734.362 733.812 733.261 732.711 732.16 734.612 734.061 733.511 732.961 732.41 731.86 734.311 733.761 733.211 732.66 732.11 734.561 734.011 733.46 732.91 732.36 731.809 734.261 733.71 733.16 732.609 732.059 734.51 733.96 733.41 732.859 732.309 731.759 734.21 733.66 733.109 732.559 732.008 734.46 733.909 733.359 732.809 732.258 734.71 734.159 733.609 733.058 732.508 731.958 734.409 733.859 733.308 732.758 732.208 734.659 734.109 733.558 733.008 732.457 731.907 734.358 733.808 733.258 732.707 732.157 734.608 734.058 733.507 732.957 732.407 731.856 734.308 733.757 733.207 732.657 732.106 734.558 734.007 733.457 732.906 732.356 734.807 734.257 733.707 733.156 732.606 732.055 734.507 733.956 733.406 732.856 732.305 734.757 734.206 733.656 733.106 732.555 732.005 734.456 733.906 733.355 732.805 732.255 734.706 734.156 733.605 733.055 732.505 731.954 734.406 733.855 733.305 732.754 732.204 734.655 734.105 733.555 733.004 732.454 734.905 734.355 733.804 733.254 732.704 732.153 734.605 734.054 733.504 732.953 732.403 734.855 734.304 733.754 733.203 732.653 732.103 734.554 734.004 733.453 732.903 732.352 734.804 734.253 733.703 733.153 732.602 735.054 734.503 733.953 733.402 732.852 732.302 734.753 734.203 733.652 733.102 732.552 735.003 734.453 733.902 733.352 732.801 732.251 734.703 734.152 733.602 733.051 732.501 734.952 734.402 733.852 733.301 732.751 732.2 734.652 734.101 733.551 733.001 732.45 734.902 734.351 733.801 733.25 732.7 735.151 734.601 734.051 733.5 732.95 732.4 734.851 734.301 733.75 733.2 732.649 735.101 734.55 734 733.45 732.899 732.349 734.8 734.25 733.699 733.149 732.599 735.05 734.5 733.949 733.399 732.849 732.298 734.75 734.199 733.649 733.098 732.548 734.999 734.449 733.899 733.348 732.798 735.249 734.699 734.148 733.598 733.048 732.497 734.949 734.398 733.848 733.298 732.747 735.199 734.648 734.098 733.547 732.997 732.447 734.898 734.348 733.797 733.247 732.696 735.148 734.598 734.047 733.497 732.946 732.396 734.847 734.297 733.747 733.196 732.646 735.097 734.547 733.996 733.446 732.896 735.347 734.797 734.246 733.696 733.146 732.595 735.047 734.496 733.946 733.395 732.845 735.296 734.746 734.196 733.645 733.095 732.544 734.996 734.445 733.895 733.345 732.794 735.246 734.695 734.145 733.594 733.044 735.493 734.945 734.395 733.844 733.294 732.744 735.195 734.645 734.094 733.544 732.993 735.445 734.894 734.344 733.794 733.243 732.693 735.144 734.594 734.044 733.493 732.943 735.394 734.844 734.293 733.743 733.193 732.642 735.094 734.543 733.993 733.442 732.892 735.344 734.793 734.243 733.692 733.142 735.593 735.043 734.493 733.942 733.392 732.841 735.293 734.742 734.192 733.642 733.091 735.543 734.992 734.442 733.891 733.341 732.791 735.242 734.692 734.141 733.591 733.041 735.492 734.942 734.391 733.841 733.29 732.74 735.191 734.641 734.091 733.54 732.99 735.441 734.891 734.34 733.79 733.24
733.528 732.973 732.418 731.863 734.31 733.755 733.2 732.645 732.09 734.537 733.982 733.427 732.871 732.316 731.761 734.208 733.653 733.098 732.543 731.988 734.435 733.88 733.324 732.769 732.214 731.659 734.106 733.551 732.996 732.441 731.886 734.333 733.778 733.223 732.667 732.112 734.559 734.004 733.449 732.894 732.339 731.784 734.231 733.676 733.12 732.565 732.01 734.457 733.902 733.347 732.792 732.237 734.684 734.129 733.574 733.018 732.463 731.908 734.355 733.8 733.245 732.69 732.135 734.582 734.027 733.472 732.917 732.361 731.806 734.253 733.698 733.143 732.588 732.033 734.48 733.925 733.37 732.815 732.259 734.706 734.151 733.596 733.041 732.486 731.931 734.378 733.823 733.268 732.713 732.157 734.604 734.049 733.494 732.939 732.384 734.831 734.276 733.721 733.166 732.61 732.055 734.502 733.947 733.392 732.837 732.282 734.729 734.174 733.619 733.064 732.509 731.953 734.4 733.845 733.29 732.735 732.18 734.627 734.072 733.517 732.962 732.406 734.853 734.298 733.743 733.188 732.633 732.078 734.525 733.97 733.415 732.86 732.305 734.751 734.196 733.641 733.086 732.531 734.978 734.423 733.868 733.313 732.758 732.203 734.649 734.094 733.539 732.984 732.429 734.876 734.321 733.766 733.211 732.656 732.101 734.547 733.992 733.437 732.882 732.327 734.774 734.219 733.664 733.109 732.554 735 734.445 733.89 733.335 732.78 732.225 734.672 734.117 733.562 733.007 732.452 734.898 734.343 733.788 733.233 732.678 735.125 734.57 734.015 733.46 732.905 732.35 734.796 734.241 733.686 733.131 732.576 735.023 734.468 733.913 733.358 732.803 732.248 734.694 734.139 733.584 733.029 732.474 734.921 734.366 733.811 733.256 732.701 735.147 734.592 734.037 733.482 732.927 732.372 734.819 734.264 733.709 733.154 732.599 735.045 734.49 733.935 733.38 732.825 732.271 734.717 734.162 733.607 733.052 732.497 734.943 734.388 733.833 733.278 732.723 735.17 734.615 734.06 733.505 732.95 732.395 734.841 734.286 733.731 733.176 732.621 735.068 734.513 733.958 733.403 732.848 735.295 734.74 734.184 733.629 733.074 732.519 734.966 734.411 733.856 733.301 732.746 735.193 734.637 734.082 733.527 732.972 732.417 734.864 734.309 733.754 733.199 732.644 735.091 734.536 733.98 733.425 732.87 735.317 734.762 734.207 733.652 733.097 732.542 734.989 734.433 733.878 733.323 732.768 735.215 734.66 734.105 733.55 732.995 735.442 734.887 734.331 733.776 733.221 732.666 735.113 734.558 734.003 733.448 732.893 735.34 734.785 734.229 733.674 733.119 732.564 735.011 734.456 733.901 733.346 732.791 735.238 734.683 734.128 733.572 733.017 735.464 734.909 734.354 733.799 733.244 732.689 735.136 734.581 734.026 733.47 732.915 735.362 734.807 734.252 733.697 733.142 735.589 735.034 734.479 733.923 733.368 732.813 735.26 734.705 734.15 733.595 733.04 735.487 734.932 734.377 733.822 733.266 732.711 735.158 734.603 734.048 733.493 732.938 735.385 734.83 734.275 733.719 733.164 735.611 735.056 734.501 733.946 733.391 732.836 735.283 734.728 734.173 733.618 733.062 735.509 734.954 734.399
