766 766 767 767 766 766 766 766 766 766 767 767 767 766 766 766 766 766 766 766 766 766 766 766 766 766 766 766 766 766 766 766 766 766 766 766 766 765 765 765 765 765 765 765 765 765 765 765 765 765 765 765 765 765 765 765 765 765 765 765 765 765 765 765 765 765 765 765 765 765 765 765 765 765 765 765 764 764 764 764 764 764 763 763 763 763 763 763 763 763 763 763 762 762 762 762 762 762 762 762 762 763 763 762 762 762 762 762 762 762 762 762 762 762 761 761 761 761 761 761 761 761 761 761 761 761 761 761 761 761 761 761 761 761 761 761 761 761 761 761 761 761 761 761 761 761 761 761 760 760 760 760 760 760 759 759 759 759 759 759 759 759 759 759 759 759 759 759 759 759 759 759 759 759 759 758 758 758 758 758 758 758 758 758 758 758 758 758 758 758 757 757 757 757 757 758 758 758 757 757 757 757 757 757 757 757 757 757 756 756 756 756 756 756 756 756 756 756 756 756 756 756 756 756 756 756 756 755 755 755 755 754 754 754 754 754 754 754 754 754 754 753 753 753 753 753 753 753 753 753 753 753 752 752 752 752 752 752 752 752 752 752 752 752 752 752 751 751 751 751 751 751 751 751 750 750 750 749 749 749 750 750 750 750 749 749 749 748 747 746 746 746 746 745 745 745 745 745 745 745 745 745 745 745 746 749 753 756 758 759 757 752 744 739 738 738 738 737 737 737 795 795 794 794 793 793 793 793 793 792 792 792 792 792 792 792 792 792 792 792 792 792 791 791 791 791 791 790 790 790 790 791 791 791 791 791 791 791 791 791 790 790 790 790 790 790 790 790 790 790 790 789 789 789 788 788 788 788 788 788 788 788 788 788 788 788 788 788 788 788 788 788 788 788 788 788 788 787 787 787 787 787 787 787 787 787 787 787 787 787 787 787 787 786 786 786 786 786 786 786 786 786 786 786 786 786 786 786 786 786 786 786 786 786 785 785 785 785 785 785 785 785 785 785 785 785 785 785 785 785 785 784 784 784 784 784 784 784 784 784 784 784 783 783 783 783 783 783 782 783 783 783 783 783 784 784 784 784 784 783
783 783 783 783 783 782 782 782 782 782 782 782 783 782 782 782 781 780 779 777 777 776 776 775 775 775 775 775 775 775 775 775 775 775 775 775 775 775 775 775 775 774 774 774 774 774 774 774 774 774 773 773 773 773 773 773 773 773 773 773 773 772 772 772 772 772 772 771 771 771 771 771 771 771 771 771 771 771 771 771 771 771 771 771 771 771 771 771 771 771 771 770 770 770 770 770 770 770 770 770 770 770 770 769 769 769 768 768 768 768 768 768 768 768 768 768 768 768 768 768 768 768 768 767 767 767 768 768 768 768 768 768 767 767 767 767 768 768 768 768 768 768 768 767 767 767 767 767 767 767 767 767 766 766 766 766 766 766 766 766 766 766 766 766 766 766 766 766 766 766 766 766 766 766 766 766 766 766 766 766 765 765 765 765 765 765 766 766 766 766 766 766 766 766 766 765 765 765 765 765 765 765 765 765 765 765 765 765 765 764 764 764 764 765 765 765 765 765 765 765 765 765 764 764 764 765 765 765 765 765 765 765 765 764 764 764 764 764 764 764 764 763 763 763 762 762 762 763 762 762 762 762 762 762 762 762 762 762 762 762 762 762 762 762 762 762 762 762 762 761 761 761 761 761 761 761 761 761 761 761 761 761 761 761 761 761 761 761 761 761 761 761 761 761 761 761 761 761 761 761 761 761 761 761 761 761 761 761 760 760 760 760 760 760 760 759 759 759 759 759 759 759 759 759 759 759 759 759 759 759 759 759 759 759 759 759 759 758 758 758 758 758 758 758 758 758 758 758 758 758 758 758 758 758 758 758 758 758 758 758 757 757 757 757 757 757 757 757 757 757 757 757 757 757 757 757 757 757 756 756 756 756 756 756 756 756 756 756 756 755 755 755 755 754 754 754 754 754 754 754 754 754 754 753 753 753 753 753 753 753 753 753 753 753 752 752 752 752 752 752 753 752 752 752 752 752 752 752 751 751 752 752 751 751 751 750 750 750 750 750 750 750 750 750 750 749 749 748 747 746 746 746 746 746 746 745 745 745 745 745 745 745 745 745 748 752 756 758 758 759 757 752 744 739 738 738 738 738 738 738
795 795 795 794 794 794 794 793 793 792 792 792 792 792 792 792 792 792 792 792 792 792 792 791 791 791 791 791 790 790 791 791 791 791 791 791 791 791 791 791 790 790 790 790 791 791 791 790 790 790 790 790 789 789 788 788 788 788 788 788 788 788 788 788 788 788 788 788 788 788 788 788 788 788 788 788 788 788 787 787 787 787 787 787 787 787 787 787 787 787 787 787 787 787 786 786 786 786 786 786 786 786 786 786 786 787 787 787 787 787 786 786 786 785 785 785 785 784 784 785 785 785 785 785 785 785 785 785 785 785 785 785 785 785 785 785 784 784 784 784 784 784 783 783 783 783 783 783 782 783 783 783 783 784 784 784 784 784 784 784 784 783 783 783 783 782 783 783 783 782 783 783 783 783 782 782 781 780 779 778 777 776 776 776 775 775 775 776 776 776 776 776 776 776 776 776 776 775 775 775 775 775 774 774 774 775 775 774 774 774 774 774 774 774 774 774 774 774 773 773 773 773 773 772 772 772 772 772 772 772 772 772 772 772 772 772 772 771 771 771 771 771 771 771 771 771 771 771 771 771 771 771 771 771 771 771 771 771 771 771 770 770 770 770 770 769 769 769 768 768 768 768 768 769 769 769 769 768 768 768 768 768 768 768 768 768 768 768 768 768 768 768 768 767 767 768 768 768 768 768 768 768 768 767 767 767 767 767 767 767 767 766 766 766 766 766 766 766 766 766 766 766 766 766 766 766 766 766 766 766 766 766 766 766 766 766 766 766 766 765 765 765 765 765 765 765 765 766 766 766 766 766 766 766 765 765 765 765 765 765 765 765 765 765 765 765 765 764 764 764 764 764 764 764 764 765 765 765 765 764 764 764 764 764 764 764 764 764 764 764 764 764 764 764 764 764 764 763 763 763 763 763 763 762 762 762 762 762 762 762 762 762 762 762 762 762 762 761 761 761 761 762 762 762 762 762 762 762 761 761 761 761 761 761 761 761 761 761 761 761 761 761 761 761 761 761 761 761 761 761 761 761 761 761 761 761 761 761 761 761 761 761 761 761 761 760 760 760 760 760 760 760 760 760 760 759 759 759 759 759
759 759 759 759 759 758 759 759 759 759 759 759 759 759 759 759 759 758 758 758 758 758 758 758 758 758 758 758 758 758 758 758 758 758 758 758 758 758 758 758 758 757 757 757 757 757 757 757 757 757 757 757 757 757 757 757 757 757 757 757 757 757 757 757 756 756 756 756 756 755 755 755 755 755 755 755 755 755 755 755 754 754 754 754 753 753 753 753 753 753 753 753 753 753 753 753 752 752 752 753 753 753 753 752 752 752 752 752 752 752 752 752 752 751 751 751 751 750 750 750 750 750 750 750 750 749 749 748 747 746 746 746 746 746 746 746 746 746 746 746 746 745 745 746 750 755 758 758 758 758 757 752 744 739 738 738 738 738 738 738 795 795 795 794 794 794 794 793 793 792 792 792 792 792 792 792 792 792 792 792 792 792 792 792 792 791 791 791 791 791 791 791 791 791 791 791 791 791 791 791 791 790 790 790 791 791 791 790 790 790 790 790 789 789 789 789 789 789 789 789 789 789 788 788 788 788 788 788 788 788 788 788 788 788 788 788 788 788 788 787 787 787 787 787 787 787 787 787 787 787 787 787 787 787 787 786 786 786 786 786 786 786 786 786 786 787 787 787 787 787 786 786 786 785 785 784 784 784 784 784 785 785 785 785 785 785 785 786 786 785 785 785 785 785 785 785 784 784 784 784 784 784 783 783 783 783 783 783 783 783 783 783 783 784 784 784 784 784 784 784 784 784 783 783 783 783 783 783 783 783 783 783 783 783 782 782 781 780 779 778 778 777 777 776 776 776 776 776 777 777 777 777 777 777 777 776 776 776 776 776 776 775 775 775 775 775 775 775 775 775 775 775 775 775 775 775 775 774 774 774 774 773 773 773 773 773 772 772 772 772 772 772 772 772 772 772 772 772 772 772 771 771 772 772 772 772 772 772 771 771 771 771 771 771 771 771 771 771 771 771 771 771 770 770 770 770 770 769 769 769 769 769 769 769 769 769 769 769 769 769 768 768 768 768 768 768 768 768 768 768 768 768 768 768 768 768 768 768 768 768 768 768 768 767 767 767 767 767 767 767 767 766 766 766 766 766 766 766 766 766
766 766 766 766 766 766 766 766 766 766 766 766 766 766 766 766 766 765 765 765 765 765 765 765 765 765 765 766 766 766 766 766 766 766 765 765 765 765 765 765 765 765 765 765 765 765 764 764 764 764 764 764 764 764 764 764 764 764 764 764 764 763 763 764 764 764 764 764 764 764 764 764 763 763 763 763 763 763 763 763 763 762 762 762 762 762 762 762 762 762 762 762 762 762 762 762 761 761 761 761 761 761 761 761 761 761 761 761 761 761 761 761 761 761 761 760 760 760 761 761 761 761 760 760 760 761 761 761 761 761 761 761 761 761 761 761 761 761 761 761 761 761 761 761 760 760 760 760 760 760 760 760 760 759 759 759 759 759 759 759 759 759 759 759 758 758 758 758 758 758 758 758 759 759 759 758 758 758 758 758 758 757 757 757 758 758 758 758 758 758 758 758 758 758 757 757 758 758 758 758 758 758 757 757 757 757 757 757 757 757 757 757 757 757 757 757 757 757 757 757 757 757 757 757 757 757 756 756 756 755 755 755 755 755 755 755 755 755 755 755 755 754 754 754 754 754 753 753 753 753 753 753 753 753 753 753 753 753 753 753 753 753 753 753 753 753 752 752 752 752 752 752 752 752 751 751 751 751 751 751 751 751 751 750 750 749 749 748 747 746 746 746 746 746 746 746 746 746 746 746 746 746 746 748 752 756 758 759 758 758 757 752 744 739 738 738 738 738 738 738 795 795 795 794 794 794 794 793 793 792 792 792 792 792 792 792 792 792 792 792 792 792 792 792 792 792 791 791 791 791 791 791 791 791 791 791 791 791 791 791 790 790 790 790 790 790 791 790 790 790 790 790 790 789 789 789 789 789 789 789 789 789 788 788 788 788 788 788 788 788 788 788 788 788 788 788 788 788 788 788 788 787 787 787 787 787 787 787 787 787 787 787 787 787 787 786 786 786 786 786 786 786 786 786 787 787 787 787 787 787 786 786 786 785 785 784 784 784 784 784 784 785 785 785 785 785 785 785 786 785 785 785 785 785 785 785 785 784 784 784 784 784 784 783 783 783 783 783 783 783 783 783 783 784 784 784 784 784 784 784
784 784 784 783 783 783 783 783 783 783 783 783 783 783 783 782 781 780 780 779 779 778 778 777 777 777 777 778 778 778 778 778 778 778 778 777 777 777 776 776 776 776 776 776 776 776 776 776 777 777 776 776 776 776 776 776 776 775 775 775 775 774 774 774 774 773 773 773 773 773 773 773 773 773 773 772 772 772 772 772 772 772 772 772 772 772 772 772 772 772 772 771 772 772 772 772 772 771 771 771 771 771 771 771 771 771 770 770 770 770 770 769 769 769 770 770 770 769 769 769 769 769 768 768 768 768 768 768 769 769 769 769 768 768 768 768 768 768 768 768 768 768 768 768 768 768 768 768 767 767 767 767 766 766 766 766 766 766 766 766 766 766 766 767 766 766 766 767 766 766 766 766 766 766 766 766 766 766 766 766 765 765 765 765 766 766 766 766 766 766 766 766 766 766 765 765 765 765 765 765 765 765 765 765 765 765 764 764 764 764 764 764 764 764 764 764 764 764 764 764 763 763 763 763 763 763 764 764 764 763 763 763 763 763 763 763 763 763 762 762 762 762 762 762 761 762 762 762 762 762 762 762 762 762 762 762 761 761 761 761 761 761 761 761 761 761 761 761 761 761 761 761 760 760 760 760 760 760 760 760 760 760 760 760 760 760 760 760 761 761 761 761 761 761 761 760 760 761 761 761 760 760 760 760 760 760 760 760 760 759 759 759 759 759 759 759 759 759 759 759 759 759 759 759 758 758 758 758 758 758 758 758 758 758 758 758 758 758 758 757 757 757 757 757 757 758 758 758 758 758 758 758 757 757 757 757 757 757 757 757 757 757 757 757 757 757 757 757 757 757 757 757 757 757 757 757 757 757 757 757 757 757 757 757 757 757 757 756 756 756 755 755 755 755 755 755 755 755 755 755 755 755 754 754 754 754 754 754 754 754 753 753 753 753 753 753 753 753 753 753 753 753 753 753 753 753 753 753 753 752 752 752 752 752 752 752 751 751 751 751 751 751 751 750 750 749 749 748 747 747 746 746 746 746 746 746 746 746 746 746 746 746 747 751 755 758 759 759 759 759 757 752 744 739 738 738 738 738 738 738
795 795 795 795 794 794 794 794 793 793 792 792 792 792 792 792 792 792 792 792 792 792 792 792 792 792 792 792 791 791 791 791 791 791 791 791 791 791 791 791 790 790 790 790 790 790 790 790 790 790 790 790 790 790 790 789 790 790 789 789 789 789 788 788 788 788 788 787 787 787 788 788 788 788 788 788 788 788 788 788 788 788 788 788 788 788 787 787 787 787 787 787 787 787 787 787 786 786 786 786 786 786 786 786 787 787 787 787 787 787 786 786 785 785 785 784 784 784 784 784 784 785 785 785 785 785 785 785 785 785 785 785 785 786 786 785 785 785 785 785 785 784 784 784 784 784 784 783 783 783 783 783 783 784 784 784 784 784 784 784 784 784 784 783 783 783 783 783 783 783 783 783 783 783 783 782 782 781 780 780 780 779 779 779 779 779 779 779 779 780 779 779 779 779 779 778 778 778 777 777 777 777 777 777 777 777 778 778 778 778 778 777 777 777 777 777 776 776 776 776 776 776 775 775 775 774 774 774 774 773 773 774 774 773 773 773 773 772 772 772 772 772 772 772 772 772 772 772 772 772 772 772 772 772 772 772 772 772 772 772 772 772 772 772 772 772 771 771 771 771 771 771 770 771 771 771 770 770 770 769 769 769 769 768 769 769 769 769 769 769 769 769 769 769 769 769 769 769 769 768 768 768 768 768 768 768 768 768 768 768 767 767 767 767 767 767 767 766 766 766 766 767 767 767 767 767 767 767 767 767 767 766 766 766 766 766 766 766 766 766 766 766 766 766 766 766 766 766 766 766 766 766 766 766 766 765 765 765 765 765 765 765 765 765 765 765 765 765 764 764 764 764 764 764 764 764 763 763 764 763 763 763 763 763 763 763 763 763 763 763 763 763 763 763 763 762 762 762 762 762 762 762 762 761 761 761 762 762 762 762 762 762 762 762 762 762 761 761 761 761 761 761 761 761 761 761 761 761 761 761 761 760 760 760 760 760 760 760 760 760 760 760 760 760 760 760 760 760 760 760 761 761 761 760 760 760 760 760 760 760 760 760 760 760 759 759 759 759 759 758 758 758 758 759 759 759 759 759 759 759
759 759 759 759 758 758 758 758 758 758 758 758 758 758 758 758 758 758 757 757 757 757 757 757 757 757 758 758 758 758 758 758 757 757 757 757 757 757 757 757 757 757 757 757 757 757 757 757 757 757 757 757 757 757 757 756 756 757 757 757 757 757 757 757 757 757 756 756 756 756 755 755 755 755 755 755 755 755 755 755 755 755 755 754 754 754 754 754 754 754 754 754 754 754 753 753 753 753 753 753 753 753 753 753 753 753 753 753 753 753 753 753 753 752 752 752 752 752 752 751 751 751 751 751 750 750 749 748 747 747 747 747 747 747 747 747 747 747 747 746 746 748 751 754 757 759 759 759 759 759 758 752 744 739 738 738 738 738 738 738 795 795 795 795 794 794 794 794 793 793 792 792 792 792 792 792 792 792 792 792 793 793 793 793 792 792 792 792 792 791 791 791 791 791 791 791 791 791 791 790 790 790 790 790 790 790 790 790 790 790 790 790 790 790 790 790 790 790 790 789 789 789 788 788 788 788 787 787 787 787 787 787 788 788 788 788 789 789 789 789 788 788 788 788 788 788 788 787 787 787 787 787 787 787 787 787 787 787 787 787 786 786 787 787 787 787 787 787 787 787 786 786 785 785 785 784 784 784 784 784 785 785 785 785 785 785 785 785 785 785 785 785 785 786 786 785 785 785 785 785 785 785 784 784 784 784 784 784 784 783 783 783 784 784 784 784 784 785 785 785 784 784 784 784 784 784 784 784 783 783 783 783 783 783 782 782 782 782 781 781 781 781 781 780 780 780 780 781 781 781 780 780 780 780 779 779 779 779 778 778 778 778 778 778 779 779 779 779 779 779 779 778 778 778 778 778 777 777 777 777 777 777 777 776 776 776 775 775 775 775 775 775 775 775 774 774 773 773 773 773 772 772 773 773 773 773 773 773 773 773 773 773 773 773 773 773 773 773 773 772 772 772 772 772 773 773 773 773 773 773 772 772 772 772 772 772 772 771 770 770 770 769 769 769 769 769 769 770 770 770 770 770 770 769 769 769 769 769 769 769 769 769 768 768 768 768 768 768 768 768 768 768 767 767 767 767 767 767 767 767
767 767 767 767 767 767 768 768 768 767 767 767 767 767 766 766 766 766 766 766 766 766 766 766 766 766 766 766 766 766 766 766 766 766 766 766 765 765 765 765 765 765 765 765 765 765 765 765 765 765 764 764 764 764 764 764 763 763 763 763 763 763 763 763 763 763 763 763 763 763 763 763 763 763 763 762 762 762 762 762 762 762 762 761 761 762 762 762 762 762 762 762 762 762 762 762 762 761 761 761 761 761 761 761 761 761 761 761 761 761 761 760 760 760 760 760 760 760 760 760 760 760 760 760 760 760 760 760 760 760 760 760 760 760 760 760 760 760 760 760 759 759 759 759 759 759 758 758 758 758 758 758 758 758 758 758 758 758 758 758 759 759 759 758 758 758 758 758 758 758 758 758 758 758 758 758 758 757 757 757 757 757 757 757 757 757 757 758 758 758 758 757 757 757 757 757 757 757 757 757 757 757 757 757 757 757 757 757 757 757 757 757 757 756 756 756 756 756 757 757 757 757 757 757 757 757 756 756 756 756 755 755 755 755 755 755 755 755 755 755 755 755 755 754 754 754 754 754 754 754 754 754 754 754 754 754 753 753 753 753 753 753 753 753 753 753 753 753 753 753 753 753 753 753 753 752 752 752 752 752 752 752 751 751 750 750 749 749 748 747 747 747 747 747 747 747 747 747 747 746 747 749 754 757 759 759 759 759 759 759 758 752 744 739 738 738 738 738 738 738 795 795 795 795 794 794 794 794 793 793 792 792 792 792 792 792 792 792 792 793 793 793 793 793 792 792 792 792 792 792 792 791 791 791 791 791 791 791 791 790 790 790 790 789 790 790 790 790 790 790 791 791 791 790 790 790 790 790 790 789 789 789 788 788 788 788 787 787 787 787 787 787 788 788 788 788 789 789 789 789 789 788 788 788 788 788 787 787 787 787 787 787 787 787 787 787 787 787 787 787 787 787 787 787 787 787 787 787 787 787 786 786 785 785 785 784 784 784 785 785 785 785 785 785 785 785 785 785 785 785 785 785 785 786 786 786 785 785 785 785 785 785 785 785 785 784 784 784 784 784 783 784 784 784 784 784 785 785 785 785
785 785 784 784 784 784 784 784 784 783 783 783 783 782 782 782 782 782 782 782 782 782 782 782 782 782 782 782 782 782 781 781 780 780 780 780 780 779 779 779 779 779 780 780 780 780 780 780 780 780 779 779 779 779 779 778 778 778 778 779 779 778 778 778 778 777 777 776 776 777 777 777 777 776 776 776 775 774 774 774 773 773 773 773 774 774 774 774 774 774 774 774 774 774 774 774 774 773 773 773 773 773 773 773 774 774 774 774 774 774 774 774 774 774 773 773 773 772 771 771 770 770 770 769 770 770 770 771 771 771 771 771 770 770 770 770 770 770 770 769 769 769 769 769 769 769 769 769 769 769 769 768 768 768 768 768 767 767 767 767 767 767 768 768 768 768 768 768 768 768 768 767 767 767 767 767 767 767 767 767 767 767 766 767 767 767 766 766 766 766 767 766 766 766 766 766 766 765 765 765 765 765 765 765 765 765 765 765 765 765 765 765 765 764 764 764 764 764 764 763 763 763 763 763 763 763 763 763 763 763 763 763 763 763 763 763 763 762 762 762 762 762 762 762 762 762 762 762 762 762 762 762 762 762 762 762 762 761 761 761 761 761 761 761 761 761 761 761 761 761 761 760 760 760 760 760 760 760 760 760 760 760 760 760 760 760 760 760 760 760 760 760 760 760 760 760 760 760 760 759 759 759 759 759 759 758 758 758 758 758 758 758 758 758 758 758 758 758 758 758 758 758 758 758 758 758 758 758 758 757 757 757 757 757 757 757 757 757 757 757 757 757 757 757 757 757 757 757 758 757 757 757 757 757 757 757 757 757 757 757 757 757 757 757 757 757 757 757 757 757 756 756 756 756 756 756 756 756 756 756 756 756 756 757 756 756 756 756 756 755 755 755 755 755 755 755 755 755 755 755 755 755 755 754 754 754 754 754 754 754 754 754 754 754 754 754 754 754 754 753 753 753 753 753 753 753 753 753 753 753 753 753 753 753 753 753 752 752 752 752 752 752 752 751 751 750 750 749 749 748 748 748 748 748 748 748 747 747 747 747 747 750 755 759 760 760 760 759 759 759 758 753 744 739 738 738 738 738 738 738
795 795 795 795 794 794 794 793 793 793 792 792 792 792 792 792 792 792 793 793 793 794 793 793 793 792 792 792 792 792 792 792 791 791 792 791 791 791 791 790 790 790 790 790 790 790 790 790 790 790 791 791 791 790 790 790 790 790 790 789 789 788 788 788 788 788 787 787 787 787 787 788 788 788 788 789 789 789 789 789 789 789 788 788 788 788 787 787 787 787 787 787 787 787 787 787 787 787 787 787 787 787 787 787 787 787 787 787 787 787 786 786 786 785 785 785 785 785 785 785 785 785 785 785 785 785 785 785 785 785 785 785 785 786 786 786 785 785 786 786 785 785 785 785 785 784 784 784 784 784 784 784 784 784 785 785 785 785 785 785 785 785 785 784 784 784 784 784 784 783 783 783 783 783 782 782 782 782 782 782 782 782 782 782 782 782 782 783 783 782 782 781 781 780 780 780 780 780 780 780 780 781 781 781 781 781 781 781 780 780 780 780 779 779 779 779 779 779 779 779 779 779 779 779 779 778 778 778 778 778 779 779 779 778 778 777 777 776 775 775 775 775 775 775 775 775 775 775 775 775 775 775 775 775 775 775 775 774 774 774 774 774 774 774 775 775 775 775 775 775 775 775 775 775 774 774 774 773 773 772 772 771 771 771 771 771 771 772 772 772 772 771 771 771 771 771 771 771 770 770 770 770 770 770 770 770 770 771 771 771 770 770 769 769 768 768 768 768 768 768 768 768 768 769 769 769 769 769 769 768 768 768 768 768 767 767 767 767 767 767 767 767 767 767 767 767 767 767 767 767 767 767 767 766 766 766 766 766 766 766 766 766 766 766 766 766 766 765 765 765 765 765 765 765 765 764 764 764 764 764 764 764 764 764 764 764 764 764 764 764 764 764 764 763 763 763 763 763 763 762 762 762 762 762 762 762 762 762 762 762 762 762 762 762 762 762 762 762 762 761 761 761 761 761 761 761 761 761 761 761 761 761 760 760 760 760 760 760 760 760 760 760 760 760 760 760 760 760 760 760 760 760 760 760 760 760 760 760 760 759 759 759 759 759 759 758 758 758 758 758 758 758 758 758 758 758 758 758 758 758
758 758 758 758 758 758 758 757 757 757 757 757 757 757 757 757 757 757 757 757 757 757 757 757 757 757 757 757 757 757 757 757 757 757 757 757 757 757 757 757 757 757 757 757 757 757 757 757 757 756 756 756 756 756 756 756 756 756 756 756 756 756 756 756 756 756 756 756 755 755 755 755 755 754 754 754 755 755 755 755 755 755 755 754 754 754 754 754 754 754 754 754 754 754 754 754 754 754 753 753 753 753 753 753 753 753 753 753 753 753 753 753 753 753 753 753 753 752 752 752 752 752 752 752 751 751 750 750 749 749 749 749 749 748 748 748 748 748 747 747 746 749 754 759 760 760 760 760 760 760 758 753 744 739 738 738 738 738 738 738 795 795 795 794 794 794 793 793 793 793 792 792 792 792 792 792 792 793 793 793 794 794 794 793 793 792 792 792 792 792 792 792 792 791 792 792 791 791 791 791 791 790 790 790 790 790 790 790 790 790 791 791 791 790 790 790 790 790 789 789 789 788 788 788 788 788 788 787 787 787 788 788 788 788 788 789 789 789 789 789 789 789 788 788 788 787 787 787 787 787 787 787 787 787 787 787 787 787 787 787 787 787 787 788 787 787 787 787 787 787 786 786 786 786 785 785 785 785 785 785 785 786 786 786 785 785 785 785 785 785 785 785 785 786 786 786 786 786 786 786 786 786 786 786 785 785 784 784 784 784 784 784 784 785 785 785 785 785 785 785 785 785 785 785 784 784 784 784 784 783 783 783 783 783 783 782 783 783 782 782 783 783 783 783 783 783 783 783 783 783 782 781 781 781 781 781 781 781 781 781 781 781 781 781 781 781 781 781 781 781 780 780 780 780 780 780 780 780 780 780 780 780 779 779 779 779 779 779 779 779 779 779 779 779 779 779 778 778 777 777 777 777 777 778 778 778 777 777 777 777 776 776 776 776 776 776 776 775 775 775 775 776 776 776 776 776 776 776 776 776 776 776 776 775 775 775 775 774 774 773 773 773 772 772 772 772 773 773 773 773 773 772 772 772 772 772 772 772 771 771 771 772 772 772 772 772 772 773 773 773 772 771 771 770 770 769 769 769 769 769
769 769 770 770 770 770 770 770 770 769 769 769 769 769 768 768 768 768 768 768 768 768 768 768 768 768 768 768 768 768 768 768 768 767 767 766 766 766 766 766 766 766 766 766 766 766 766 766 766 766 766 766 765 765 765 764 764 764 764 764 764 764 764 764 764 764 764 764 764 764 764 764 764 764 764 763 763 763 763 763 763 762 763 763 762 762 762 762 762 762 762 762 762 762 762 762 762 762 762 762 762 761 761 761 761 761 761 761 761 761 761 761 761 760 760 760 760 760 760 760 760 760 760 760 760 760 760 760 760 760 760 761 761 760 760 760 760 760 760 759 759 759 759 759 759 759 758 758 758 758 758 758 758 758 758 758 758 758 758 758 758 758 758 758 758 758 758 757 757 757 757 757 757 757 757 757 757 757 757 757 757 757 757 757 757 757 757 757 757 757 757 757 757 756 757 757 757 757 757 757 757 757 757 757 757 757 757 757 757 756 756 756 756 756 756 756 756 756 756 756 756 756 756 756 756 756 756 755 755 755 755 755 754 754 754 754 754 754 754 755 755 755 755 754 754 754 754 754 754 754 754 754 754 754 754 754 754 753 753 753 753 753 753 753 753 753 753 753 753 753 753 753 753 753 753 753 753 752 753 753 752 752 752 752 752 751 751 750 750 750 750 749 749 749 749 748 748 748 748 747 745 747 754 758 760 760 760 760 760 760 759 753 745 739 738 738 738 738 738 738 795 795 794 794 794 793 793 793 793 792 792 792 792 792 792 792 793 793 793 794 794 794 794 793 793 793 792 792 792 792 792 792 792 792 792 792 791 791 791 791 791 791 790 790 790 791 791 791 791 791 791 791 791 790 790 790 790 790 789 789 788 788 788 788 788 788 788 788 788 788 788 788 788 788 788 789 789 789 789 789 789 789 788 788 788 787 787 787 787 787 787 787 787 787 787 787 787 787 787 787 787 787 788 788 788 787 787 787 787 787 787 786 786 786 786 786 786 786 786 786 786 786 786 786 786 785 785 785 785 785 785 785 785 786 786 786 786 786 786 786 786 786 786 786 785 785 784 784 784 784 784 784 784 785 785 785 785 785 785 785
785 785 785 785 785 784 784 784 784 783 783 783 783 783 783 783 783 783 783 783 783 783 783 783 783 783 783 783 783 783 782 782 781 781 781 781 781 781 781 781 782 782 782 782 781 781 781 781 781 781 781 781 780 780 780 780 780 780 780 780 780 780 780 780 779 779 779 779 780 780 780 780 780 780 779 779 779 779 779 778 779 779 779 780 780 779 779 779 778 778 778 777 777 777 777 777 777 776 776 777 777 777 777 777 777 777 777 777 777 777 777 776 776 776 776 776 775 775 775 775 774 774 774 774 774 774 774 774 774 774 774 773 773 773 773 773 773 773 773 773 773 773 774 774 774 774 774 774 775 774 774 773 773 773 772 771 771 770 770 770 771 771 771 771 771 771 772 772 771 770 770 770 770 770 769 769 769 769 769 769 769 769 769 769 769 769 769 769 769 770 770 769 769 768 767 767 767 766 766 766 767 767 767 767 767 767 767 767 767 767 767 767 766 766 765 765 765 765 765 765 765 765 765 765 765 765 765 765 765 765 765 765 764 764 764 764 764 764 764 763 763 763 763 763 763 763 763 763 763 763 763 763 763 763 763 763 763 763 762 762 762 762 761 761 761 761 761 761 761 761 761 761 761 761 761 761 761 761 761 761 761 761 760 760 760 760 760 760 760 761 761 761 761 761 760 760 760 760 760 759 759 759 759 759 759 759 759 759 759 759 759 759 759 759 759 759 759 758 758 758 758 758 758 758 758 758 758 758 757 757 757 757 757 757 757 757 757 757 757 757 757 757 757 757 757 757 757 757 757 757 757 757 756 756 756 757 757 757 757 757 757 757 757 757 757 757 757 757 757 756 756 756 756 756 756 756 756 756 756 756 756 756 756 755 755 755 755 755 755 755 755 754 754 754 754 754 754 754 754 754 755 755 754 754 754 754 754 754 754 754 754 754 754 754 754 754 753 753 753 753 753 753 753 753 753 753 753 753 753 753 753 753 753 753 753 753 752 752 752 753 752 752 752 752 752 752 751 751 750 750 750 750 749 749 749 749 748 748 748 747 745 748 754 758 760 760 760 760 760 760 759 753 745 739 738 738 738 738 738 738
794 794 794 794 794 793 793 793 793 792 792 792 792 792 792 792 793 793 793 794 794 794 794 793 793 793 793 792 792 792 792 792 792 791 792 792 791 791 791 791 791 791 791 791 791 791 791 791 791 791 791 791 791 791 790 790 790 790 789 789 788 788 788 788 788 788 788 788 788 788 788 788 788 788 788 789 789 789 789 789 789 789 788 788 787 787 787 787 787 787 787 787 788 787 787 787 787 787 787 787 787 787 788 788 788 787 787 787 787 787 787 787 787 787 786 786 786 786 786 786 786 786 786 786 786 785 785 785 785 785 785 785 785 785 785 785 785 786 786 786 786 786 786 786 785 785 784 784 784 784 784 784 785 785 785 785 785 785 785 785 785 785 785 785 785 784 784 784 784 784 783 783 783 783 783 783 783 783 783 783 783 783 783 783 783 783 783 783 783 783 782 782 782 781 781 781 781 782 782 782 782 782 782 782 781 781 781 781 781 781 781 781 781 781 780 780 780 780 780 780 780 780 780 780 780 780 780 780 780 780 780 780 780 780 780 779 779 779 779 779 780 780 780 780 780 780 780 779 779 779 778 778 778 778 778 778 778 777 778 778 778 778 778 778 778 778 778 778 777 777 777 777 777 776 776 776 776 776 775 775 775 775 775 775 775 775 775 775 775 775 775 774 774 774 774 774 774 774 774 774 775 775 775 775 775 775 775 775 775 775 775 775 775 774 774 773 773 772 772 772 772 773 773 773 773 773 773 773 772 772 771 771 771 771 771 771 771 771 771 771 771 770 770 770 771 771 771 771 771 771 771 770 770 769 768 768 768 767 767 768 768 768 768 768 768 768 768 768 768 768 768 768 767 767 766 766 765 765 765 765 765 765 765 766 766 765 765 765 765 765 765 765 765 765 765 765 765 764 764 764 764 764 764 764 764 764 763 763 763 763 763 763 763 763 763 763 763 763 763 762 762 762 762 762 762 761 761 761 761 761 761 761 761 761 761 761 761 761 761 761 761 761 761 761 761 761 761 761 761 761 761 761 761 761 760 760 760 760 760 759 759 759 759 759 759 759 759 759 759 759 759 759 759 759 759 759 759 759 759 759
758 758 758 758 758 758 758 758 758 758 757 757 757 757 757 757 757 757 757 757 757 757 757 757 757 757 757 757 757 757 757 757 757 757 757 757 757 757 757 757 757 757 757 757 757 757 757 757 756 756 756 756 756 756 756 756 756 756 756 756 756 755 755 755 755 755 755 755 755 755 754 754 754 754 754 754 754 754 754 754 754 754 754 754 754 754 754 754 754 753 753 753 753 753 753 753 753 753 753 753 753 753 753 753 753 753 753 753 753 753 753 753 752 752 752 752 752 752 752 752 752 752 752 752 752 752 752 751 751 751 750 750 750 749 749 749 749 748 748 747 747 750 755 759 760 760 760 760 760 760 759 753 745 739 738 738 738 738 738 738 794 794 794 794 793 793 793 793 793 793 792 792 792 792 792 793 793 793 793 794 794 794 794 794 793 793 793 793 792 792 792 792 792 791 791 791 791 791 791 791 791 791 791 791 791 791 791 791 791 791 791 791 791 791 790 790 790 789 789 789 788 788 788 788 788 788 788 788 788 788 788 788 788 788 788 789 789 789 789 789 789 788 788 788 787 787 787 787 787 787 787 787 788 788 787 787 787 787 787 787 787 787 788 788 788 787 787 787 787 787 787 787 787 787 787 787 787 787 787 787 787 787 787 786 786 786 785 785 785 785 785 785 785 785 785 785 785 785 786 786 786 786 786 785 785 785 784 784 784 784 784 784 785 785 785 785 785 785 785 785 785 785 785 785 784 784 784 784 784 784 784 783 783 783 783 783 783 783 783 783 783 783 783 783 783 783 783 783 783 783 782 782 782 782 782 782 782 782 782 782 782 782 782 781 781 781 781 781 781 781 781 781 781 781 781 780 780 780 780 780 780 780 780 780 780 780 780 780 780 780 780 780 780 780 780 780 780 780 780 780 780 780 780 781 780 780 780 780 780 779 779 778 778 778 778 778 778 778 778 779 779 779 779 779 778 778 778 778 778 778 777 777 777 777 776 776 776 776 776 776 776 776 776 776 776 776 776 776 776 776 775 775 775 775 775 775 775 775 775 775 776 776 776 776 776 776 776 776 776 776 775 775 775 775 775 775 774 774 774 774
774 774 774 774 774 774 775 774 774 773 773 773 773 773 772 772 772 773 773 773 773 772 772 772 772 772 772 772 772 772 772 772 771 770 770 770 769 769 769 769 770 770 770 770 770 770 769 769 769 769 769 769 769 768 768 767 766 766 766 766 766 766 767 767 767 767 766 766 766 766 766 766 766 766 766 765 765 765 765 765 764 764 764 764 764 764 764 764 764 764 764 764 764 764 764 764 764 764 763 763 763 762 762 762 762 762 762 762 762 762 762 762 762 762 762 762 762 762 762 762 762 762 761 761 761 761 761 761 761 761 761 761 761 761 761 760 760 760 760 760 760 759 760 760 760 759 759 759 760 760 760 760 759 760 760 759 759 759 759 759 759 759 759 759 759 759 759 759 758 758 758 758 758 758 758 758 758 758 758 758 758 758 758 758 758 758 758 758 757 757 757 757 757 757 757 757 757 757 757 757 757 757 757 757 757 757 757 757 757 756 756 756 756 756 756 756 756 756 756 756 756 756 755 755 755 755 755 755 755 755 754 754 754 754 754 754 754 754 754 754 754 754 754 754 754 754 754 753 753 753 753 753 753 753 753 753 753 753 753 753 753 753 753 753 753 753 753 753 753 753 753 752 752 752 752 752 752 752 752 752 752 752 752 752 752 752 752 751 751 751 751 751 750 750 750 749 749 749 748 748 750 754 758 759 760 760 760 760 760 760 759 753 745 739 738 738 738 738 738 738 794 794 794 793 793 793 793 793 793 793 792 792 792 792 793 793 793 793 794 794 794 794 794 794 793 793 793 793 792 792 792 792 792 791 791 792 791 791 791 791 791 791 791 791 791 791 792 792 792 791 791 791 791 790 790 790 790 789 789 789 788 788 788 788 788 788 789 789 788 788 788 788 788 788 788 788 789 789 789 789 788 788 788 787 787 787 787 787 787 787 787 788 788 788 788 787 787 787 787 787 787 787 788 788 788 787 787 787 787 787 787 787 787 787 787 787 787 787 787 787 787 787 787 787 786 786 786 786 786 786 786 786 786 785 785 785 785 785 785 786 786 786 785 785 785 785 784 784 784 784 784 785 785 785 786 785 785 785 785 785
785 785 785 784 784 784 784 784 784 784 784 784 783 783 783 783 783 783 783 783 783 783 783 783 783 783 783 783 783 783 783 782 782 782 782 782 782 782 782 782 782 782 782 781 781 782 782 782 781 781 781 781 781 781 781 780 780 780 780 780 780 780 780 780 780 780 780 780 780 780 780 780 780 780 780 780 780 780 780 780 780 780 780 781 780 780 780 780 780 780 779 779 778 778 778 778 778 778 779 779 779 779 779 779 779 779 779 778 778 778 778 778 777 777 777 777 776 776 776 776 776 777 777 777 777 776 776 776 776 776 776 776 776 776 776 776 776 776 776 776 776 776 776 776 776 776 776 776 776 776 776 776 776 776 775 775 775 775 775 775 775 775 775 775 775 775 776 776 775 775 775 774 774 774 774 773 774 774 774 774 774 774 774 774 773 773 773 773 773 773 773 772 772 772 771 772 771 771 771 771 772 771 771 771 771 771 771 771 770 770 771 771 770 770 769 769 768 768 768 767 768 768 768 769 769 768 767 767 767 767 766 766 767 767 767 766 766 766 766 765 765 765 765 765 765 765 765 765 765 765 765 765 765 765 765 765 765 765 764 764 763 763 763 763 763 763 763 762 762 762 762 762 762 762 762 762 763 763 763 762 762 762 762 762 762 762 762 762 762 762 762 762 761 761 761 761 761 760 760 760 760 760 760 760 760 760 760 760 760 760 760 760 760 760 760 760 760 759 759 759 759 759 759 759 759 759 759 759 759 759 758 758 758 758 758 758 758 758 758 758 758 758 758 758 758 758 758 758 758 758 757 757 757 757 757 757 757 757 757 757 757 757 757 757 757 757 757 757 757 757 757 757 757 756 756 756 757 757 756 756 756 756 756 756 756 756 756 755 755 755 755 754 754 754 754 754 754 754 754 754 754 754 754 754 754 754 754 753 753 753 753 753 753 753 753 753 753 753 753 753 753 753 753 753 753 753 753 753 753 752 752 752 752 752 752 752 752 752 752 752 752 752 752 752 752 752 752 751 751 751 751 751 751 750 750 750 749 749 747 748 753 757 760 760 760 760 760 760 760 760 759 753 745 739 738 738 738 738 738 738
794 794 793 793 793 793 793 793 793 793 793 793 793 793 793 794 794 794 794 794 794 794 794 793 793 793 793 793 792 792 792 792 792 792 792 792 792 791 791 791 792 792 792 792 792 792 792 792 791 791 791 791 790 790 790 790 790 789 789 789 789 788 788 788 788 789 789 789 789 788 788 788 789 789 788 788 789 789 789 788 788 788 788 787 787 787 787 787 787 787 787 788 788 788 788 787 787 787 787 787 787 787 788 788 788 788 788 788 787 787 787 787 787 787 787 787 787 787 787 787 787 787 787 787 787 786 786 786 786 786 786 786 786 785 785 785 785 785 785 786 786 786 785 785 785 785 785 785 784 784 784 785 785 786 786 786 785 785 785 785 785 785 785 784 784 784 784 784 784 784 784 784 784 783 783 783 783 783 783 783 783 783 783 783 783 783 783 783 783 783 783 783 783 783 783 783 783 783 783 782 782 782 782 782 782 782 782 782 782 782 781 781 781 781 781 780 780 781 781 781 781 781 781 781 781 780 780 780 780 780 780 780 780 780 780 780 780 780 780 780 780 780 780 781 780 780 780 780 780 780 779 779 779 779 779 779 779 779 779 779 779 779 779 779 779 779 779 779 778 778 778 778 778 777 777 777 777 777 777 777 777 777 777 777 777 777 777 776 776 776 776 776 776 776 776 776 776 776 776 777 777 777 776 776 776 776 777 776 776 776 776 776 776 776 776 776 776 775 775 775 775 775 776 776 776 776 776 776 776 776 776 775 775 775 775 775 775 775 775 775 775 775 775 775 774 774 773 773 773 773 773 773 773 773 773 773 773 773 773 773 773 773 772 772 772 772 772 772 772 772 772 772 771 771 771 771 770 770 770 770 770 770 770 771 770 770 769 769 768 768 768 767 768 768 768 767 767 767 766 766 766 766 766 766 766 766 766 767 767 766 766 766 766 767 766 766 766 766 766 766 765 764 764 764 764 764 764 764 763 764 764 764 763 763 763 763 764 764 763 763 764 764 764 764 764 764 764 764 764 763 763 763 763 762 762 761 761 761 761 761 761 761 761 761 761 760 760 761 761 761 761 761 761 761 761 760 760 760 760 760
760 760 760 760 760 760 760 760 759 759 759 759 758 758 758 758 758 758 759 759 759 759 759 758 758 758 758 758 758 758 758 758 758 758 758 758 758 758 758 758 757 757 757 757 757 757 757 757 757 757 757 757 757 757 757 757 757 757 757 757 756 756 756 756 756 756 756 756 756 755 755 755 754 754 754 754 754 754 754 754 754 754 754 754 754 754 754 754 753 753 753 753 753 753 753 753 753 753 753 753 753 753 753 753 753 753 753 752 752 752 752 752 752 752 752 752 752 752 752 752 752 752 752 752 752 752 752 751 751 751 751 751 751 751 750 750 750 748 747 748 754 759 761 760 760 760 760 760 760 760 759 753 745 739 738 738 738 738 738 738 794 794 793 793 793 793 793 793 794 794 794 793 793 794 794 794 794 794 794 794 794 794 794 793 793 793 793 793 792 792 792 792 792 792 792 792 792 792 792 792 792 792 792 792 792 792 792 792 791 791 791 791 790 790 790 790 790 789 789 789 789 789 788 788 788 789 789 789 789 788 788 788 789 789 789 789 789 789 789 789 788 788 788 787 787 787 787 787 787 787 788 788 788 788 788 788 787 787 787 787 788 788 788 788 788 788 788 788 788 787 787 787 787 787 787 787 787 787 787 787 787 787 787 787 787 786 786 786 786 786 786 786 786 785 785 785 785 785 786 786 786 786 786 785 785 785 785 785 785 784 785 785 785 786 786 786 786 786 786 786 785 785 785 785 784 784 784 784 784 784 784 784 784 784 783 783 783 783 783 783 783 783 783 783 783 783 783 783 783 783 783 783 783 783 783 783 783 783 783 783 783 782 782 782 782 782 782 782 782 782 782 781 781 781 781 781 781 781 781 781 781 781 781 781 781 781 781 780 780 780 780 780 780 780 780 780 780 780 780 780 780 780 780 781 781 780 780 780 780 780 780 779 779 779 779 779 779 779 779 779 779 779 779 779 779 779 779 779 779 778 778 778 778 778 777 777 777 777 777 777 777 777 777 777 777 777 777 777 776 776 776 776 776 776 776 777 777 777 777 777 777 777 777 777 776 777 777 777 777 777 776 776 776 776 776 776 776 776 776 776
776 776 776 776 776 776 777 776 776 776 776 776 776 776 775 775 775 775 776 776 776 775 775 775 775 774 774 774 774 774 774 773 773 774 774 774 774 774 774 774 773 773 773 773 773 773 773 772 772 772 772 772 772 772 772 772 772 771 771 771 772 772 772 772 772 771 771 770 770 770 769 769 769 769 769 769 768 768 768 767 767 766 767 767 768 768 768 768 768 768 768 768 768 768 768 768 768 768 768 767 767 766 766 766 766 766 765 765 765 765 765 765 765 765 765 765 765 765 765 765 765 765 765 765 765 766 766 766 765 765 765 765 764 764 763 763 763 763 762 762 762 762 762 762 762 762 762 762 762 762 762 762 761 761 761 761 761 761 760 760 761 761 761 761 761 761 760 760 760 760 759 759 759 759 759 759 759 759 759 760 760 760 759 759 759 759 759 759 759 759 758 758 758 758 758 758 758 758 758 758 758 758 757 757 757 757 757 757 757 757 757 757 757 757 757 757 757 757 757 757 757 757 757 757 757 757 757 757 756 756 756 755 755 755 754 755 755 754 754 755 755 755 754 754 754 754 754 754 754 753 753 753 753 753 753 753 753 753 753 753 753 753 753 753 753 753 753 752 752 752 752 752 752 752 752 752 752 752 752 752 752 752 752 752 752 752 752 751 751 751 751 751 751 751 751 751 750 749 747 749 755 760 761 761 760 760 761 760 760 760 759 754 745 739 738 738 738 738 738 738 795 794 793 793 793 793 794 794 794 794 794 794 794 794 794 794 794 794 794 794 794 794 794 793 793 793 793 793 793 792 792 792 792 792 792 792 792 792 792 792 792 792 792 792 792 792 792 792 791 791 791 791 791 791 791 790 790 790 789 789 789 789 789 789 789 789 789 789 789 788 788 788 789 789 789 789 789 789 789 789 789 788 788 788 787 787 787 787 787 787 788 788 788 788 788 788 788 788 788 788 788 788 788 788 788 788 788 788 788 788 788 788 787 787 787 787 787 787 787 787 787 787 787 787 787 786 787 787 787 786 786 786 786 785 785 785 785 785 786 786 786 786 786 786 785 785 785 785 785 784 785 785 785 786 786 786 786 786 786 786
785 785 785 785 785 784 784 784 784 784 784 784 784 784 784 784 784 783 783 783 783 783 783 783 783 783 783 783 783 783 783 783 783 783 783 783 783 783 783 783 783 783 782 782 782 782 782 782 782 782 782 782 782 781 781 781 781 781 781 781 781 781 781 781 781 781 781 780 780 780 780 780 780 780 780 780 780 780 780 780 780 780 781 781 781 781 780 780 780 780 780 780 779 779 779 779 779 779 779 779 779 779 779 779 779 779 779 779 779 779 779 779 779 778 778 778 777 777 777 777 777 777 777 777 777 777 777 777 777 777 777 777 777 777 777 777 777 777 777 777 777 777 777 777 777 777 777 777 777 777 777 776 776 776 776 776 776 776 776 776 776 776 776 776 777 777 777 777 777 777 776 776 776 776 776 776 776 776 776 776 776 776 776 775 775 774 774 774 774 774 774 774 774 774 774 774 774 774 774 774 774 774 773 773 773 773 773 773 773 773 773 773 773 773 773 773 772 772 772 772 772 772 772 772 772 772 772 771 771 771 771 771 770 770 770 770 770 769 769 768 768 768 768 769 769 769 770 770 770 769 769 769 769 769 769 769 769 769 769 769 769 768 768 768 768 767 767 767 767 767 767 767 767 767 767 766 766 766 766 767 767 767 767 767 767 767 767 767 767 767 766 766 766 766 765 765 765 765 765 764 764 764 765 765 764 764 763 763 763 763 763 762 762 762 762 761 761 761 761 761 762 762 762 762 762 762 762 761 761 760 760 760 760 759 759 759 760 760 760 760 760 760 760 760 760 760 760 760 760 760 759 759 759 760 759 759 759 759 759 759 758 758 758 757 757 757 757 757 758 758 758 758 758 758 758 758 758 758 758 758 758 758 757 757 757 757 757 757 757 757 756 756 756 755 755 755 755 755 755 755 755 755 755 755 754 754 754 754 754 754 754 753 753 754 754 754 754 754 754 754 754 754 753 753 753 753 753 752 752 752 752 752 752 752 752 752 752 752 752 752 752 752 752 752 752 752 752 752 751 751 751 751 751 751 751 751 751 750 749 751 756 760 761 761 761 761 761 761 760 760 759 754 745 739 738 738 738 738 738 738
795 794 794 793 794 794 794 794 795 795 795 795 795 794 794 794 794 793 793 794 794 794 794 793 793 793 793 793 793 793 793 792 792 792 792 792 792 792 792 792 792 793 792 792 792 792 792 792 792 791 791 791 791 791 791 790 790 790 790 790 790 789 789 789 789 789 789 789 789 788 788 789 789 789 789 789 789 789 789 789 789 788 788 788 788 788 788 788 788 788 788 788 788 788 788 788 788 788 788 788 788 788 788 788 788 788 788 788 788 788 788 788 788 787 787 787 787 787 787 787 787 787 787 787 787 787 787 787 787 786 786 786 786 785 785 785 785 785 785 786 786 786 786 786 785 785 785 785 785 785 785 785 785 785 785 785 786 786 786 786 785 785 785 785 785 785 785 784 784 784 784 784 784 784 784 784 784 784 784 784 784 783 783 783 784 784 784 784 783 783 783 783 783 783 783 783 783 783 783 783 783 783 783 782 782 782 782 782 782 782 782 782 782 782 782 781 782 782 782 781 781 781 782 782 781 781 781 781 780 780 780 780 780 780 780 780 781 781 781 781 780 780 781 781 781 781 780 780 780 780 780 780 780 780 779 779 779 779 779 779 779 780 780 779 779 779 779 779 779 779 779 779 779 779 778 778 778 778 778 778 777 777 777 777 777 777 777 777 777 777 777 777 777 777 777 777 777 777 777 777 777 777 777 777 777 777 777 777 777 777 776 776 776 776 776 776 776 776 776 776 776 776 776 777 777 777 777 777 777 777 777 776 776 776 776 776 776 776 776 776 776 776 776 776 775 775 775 775 774 774 774 774 775 775 775 775 775 774 774 774 774 774 774 774 773 773 773 773 773 773 773 773 773 773 773 773 773 773 773 772 772 772 772 772 772 772 772 772 772 772 772 772 772 771 771 771 771 771 770 770 770 770 770 770 770 770 771 771 771 771 770 770 770 770 770 770 770 770 770 770 770 770 770 769 769 769 768 768 768 768 768 768 768 768 768 768 768 768 768 768 768 768 768 768 768 768 768 768 768 768 768 768 768 767 767 767 767 767 767 766 766 766 767 767 766 766 765 765 765 765 764 763 763 762 762 762 763 763 763 763
763 763 763 763 763 763 763 763 762 762 762 761 761 761 761 761 761 761 761 761 761 761 761 761 761 761 761 761 761 761 761 761 761 761 761 761 761 760 760 760 759 759 759 758 758 758 758 758 759 759 759 759 759 759 759 759 759 759 759 759 759 759 758 758 758 758 758 758 757 757 757 757 756 756 756 756 756 756 755 755 756 756 755 755 755 754 754 754 754 754 754 754 754 754 755 755 755 754 754 754 754 754 754 753 753 753 753 752 752 752 752 752 752 752 752 752 752 752 752 752 752 752 752 752 752 752 752 752 752 752 752 752 752 751 751 751 752 752 752 754 758 760 761 761 761 761 761 760 760 760 759 753 745 739 738 738 738 738 738 738 795 795 794 794 794 794 795 795 795 795 795 795 795 794 794 794 794 793 793 794 794 794 794 793 793 793 793 793 793 793 793 793 792 792 792 792 792 792 791 792 792 793 793 792 792 792 792 792 791 791 790 790 790 791 791 790 790 790 790 790 790 790 789 789 789 789 789 789 789 789 789 789 789 789 789 789 789 789 789 789 789 789 788 788 788 788 788 788 788 788 788 788 788 788 788 788 788 788 788 788 788 788 789 789 789 789 788 788 788 788 788 788 788 787 787 787 787 787 787 787 787 787 787 787 787 787 787 787 787 786 786 786 786 785 785 785 785 785 786 786 787 787 786 786 785 785 785 785 785 785 785 785 785 785 785 785 785 785 785 785 785 785 785 785 785 785 785 785 784 784 784 784 784 784 784 784 784 784 784 784 784 784 784 784 784 784 784 784 784 784 783 783 783 783 783 783 783 783 783 783 783 783 783 782 782 782 782 782 782 782 782 782 782 782 782 782 782 782 782 782 782 782 782 782 782 781 781 781 780 780 780 781 781 781 781 781 781 781 781 781 781 780 781 781 781 781 780 780 780 780 780 780 780 780 780 779 779 779 779 779 780 780 780 780 780 780 780 780 779 779 779 779 779 779 779 778 778 778 778 778 778 777 777 777 777 777 777 777 777 777 777 777 777 777 777 777 777 777 777 777 777 777 777 777 777 777 777 777 777 777 776 776 776 776 776 776 776 776 776 776
776 776 776 777 777 777 777 777 777 777 777 777 776 776 776 776 776 776 776 776 776 776 776 776 776 775 775 775 775 775 775 775 775 775 775 775 775 775 775 774 774 774 774 774 774 774 773 773 773 773 774 774 774 773 773 773 773 773 773 773 773 773 773 773 773 773 772 772 772 772 772 772 772 772 772 772 772 772 771 771 771 771 771 771 771 771 772 772 772 771 771 771 771 771 771 771 771 771 771 771 771 771 771 770 770 770 769 769 769 769 769 769 769 769 769 769 769 769 769 769 769 769 769 769 769 769 769 769 768 768 768 769 768 768 768 768 768 768 768 768 768 768 768 768 767 767 767 766 766 766 765 765 764 764 764 764 765 765 765 765 765 765 765 765 765 765 764 764 764 764 764 764 763 763 763 763 763 763 763 763 763 762 762 762 762 762 762 762 762 763 763 763 763 763 763 763 763 762 762 761 761 760 760 760 760 760 760 760 761 761 761 761 761 761 761 761 761 761 760 760 760 760 760 759 759 759 759 758 758 758 758 757 757 757 757 757 757 756 756 756 756 756 756 756 756 755 755 755 755 755 754 754 755 755 756 756 755 755 755 755 755 755 754 754 754 753 753 753 752 752 752 752 753 753 753 753 753 753 753 753 752 752 752 752 752 752 752 752 752 752 752 752 752 752 751 752 752 753 753 755 758 760 761 761 761 761 761 760 760 760 759 753 745 739 738 738 738 738 738 738 795 794 794 794 794 795 795 795 795 795 795 795 795 794 794 794 794 794 794 794 794 794 794 793 793 793 793 793 793 793 793 793 793 793 792 792 792 791 791 792 792 793 793 792 792 792 792 792 791 791 790 790 790 790 791 790 790 790 790 790 790 790 789 789 789 789 789 789 789 789 789 789 789 789 789 789 789 790 790 789 789 789 789 788 788 788 788 788 788 788 788 788 788 788 788 788 788 789 789 789 789 789 789 789 789 789 789 789 789 788 788 788 788 787 787 787 787 787 787 787 787 787 787 787 787 787 787 787 787 787 786 786 786 785 785 785 785 786 786 787 787 787 786 786 785 785 785 785 785 784 785 785 785 785 785 785 785 785 785 785
785 786 786 786 785 785 785 785 784 784 784 784 784 784 784 784 784 784 784 784 784 784 784 784 784 784 784 784 784 784 783 783 783 783 783 783 783 783 783 783 783 783 783 782 782 782 782 782 782 782 782 782 783 783 783 782 782 782 782 782 782 782 782 782 782 781 781 781 781 781 781 781 781 781 781 781 781 781 781 781 781 781 780 781 781 780 780 780 780 780 780 780 780 780 780 780 780 780 780 780 780 780 780 780 780 780 780 780 780 780 780 780 779 779 779 779 778 778 778 778 778 778 777 777 777 777 777 777 777 777 777 777 777 777 777 777 777 777 777 777 777 777 777 777 777 777 777 777 777 776 776 776 776 776 776 776 776 776 776 776 776 776 776 776 777 777 777 777 777 777 777 777 777 777 776 776 776 776 776 776 776 776 776 776 776 775 775 775 775 775 775 775 775 775 775 775 775 775 775 775 774 774 774 774 774 774 774 774 774 774 774 774 774 774 774 773 773 773 773 773 773 773 773 773 773 773 773 773 773 773 773 773 773 773 773 773 773 772 772 772 772 772 772 772 772 772 772 772 772 772 772 771 771 771 771 771 771 771 772 772 771 771 771 771 771 770 770 770 770 770 770 770 770 770 770 769 769 769 769 770 770 770 770 769 769 769 769 769 769 769 769 769 769 769 769 769 769 769 769 769 768 768 768 768 768 768 768 767 767 767 767 766 766 766 766 766 767 767 767 767 767 766 766 766 766 766 766 766 766 766 766 766 766 766 766 765 765 765 765 765 764 764 764 764 764 764 764 764 764 764 765 765 765 765 765 765 764 764 764 763 762 762 761 761 761 762 762 762 763 763 763 763 763 763 763 763 763 762 762 762 762 762 761 761 760 760 760 760 759 759 759 759 758 758 758 758 757 757 757 757 758 758 757 757 757 757 756 756 756 756 755 754 755 757 757 757 757 756 756 756 756 756 755 755 754 754 753 753 753 753 753 753 753 753 753 753 753 753 753 753 753 752 752 752 752 753 753 753 753 752 752 752 752 752 752 752 753 753 754 755 758 760 761 761 761 761 761 761 760 760 759 754 745 739 738 738 738 738 738 738
795 794 793 794 794 795 795 795 795 795 795 795 795 794 794 794 794 794 794 794 794 794 794 793 793 793 793 793 793 793 793 793 793 793 792 792 792 792 791 792 793 793 793 792 792 792 792 792 791 791 790 790 790 790 790 790 790 790 791 790 790 790 790 789 789 789 789 789 789 789 789 789 790 790 790 790 790 790 790 790 789 789 789 788 788 788 788 788 788 788 788 788 788 788 788 788 789 789 789 789 789 789 789 790 790 789 789 789 789 788 788 788 788 787 787 787 787 787 787 787 787 787 787 787 787 787 787 787 787 787 786 786 786 785 785 785 785 786 786 787 787 787 786 786 785 785 785 785 785 784 785 785 785 785 785 785 785 785 785 785 786 786 786 786 786 785 785 785 784 784 784 784 784 784 784 784 785 785 785 785 785 785 785 785 785 784 784 784 784 784 783 783 783 783 783 783 783 783 783 783 783 783 782 782 782 782 782 782 782 782 782 783 783 783 783 782 782 782 782 782 782 782 782 782 782 782 781 781 781 781 781 781 781 781 781 781 781 781 781 781 781 781 781 780 780 780 780 780 780 780 780 780 780 780 780 780 780 780 780 780 780 780 780 780 780 780 780 780 780 780 780 780 780 779 779 779 779 779 778 778 778 778 778 778 778 778 778 777 777 777 777 777 777 777 777 777 777 777 777 777 777 777 777 777 777 777 777 777 777 776 776 776 776 776 776 776 776 776 776 776 776 776 776 777 777 777 777 777 777 777 777 777 777 777 777 777 776 776 776 776 776 776 776 776 776 776 776 776 775 775 775 775 775 775 775 775 775 775 775 775 775 775 774 774 774 774 774 774 774 774 774 774 774 774 774 774 773 773 773 773 773 773 773 773 773 773 773 773 773 773 773 773 773 773 773 773 773 773 772 772 772 772 772 772 772 772 772 772 772 772 772 772 772 772 772 772 772 772 772 772 772 772 771 771 771 771 771 771 770 770 770 770 770 770 770 770 770 770 770 770 770 770 770 770 770 769 769 769 769 769 769 769 769 769 769 770 769 769 769 769 769 769 769 769 768 768 768 768 768 768 768 767 767 767 767 768 768 768 768 768
768 767 767 767 767 767 767 767 767 767 767 767 767 767 767 767 767 767 766 766 766 766 765 766 766 766 766 766 766 766 766 766 766 766 766 766 765 765 765 765 764 764 763 763 763 763 763 764 764 765 765 765 765 765 764 764 764 764 764 764 763 763 763 763 762 762 762 761 761 761 761 760 760 759 759 759 759 759 759 759 759 759 759 759 759 758 758 758 759 758 757 756 757 759 759 758 758 758 757 757 757 757 756 756 755 755 754 754 753 753 753 753 753 753 753 753 753 753 753 753 753 753 753 753 753 753 753 753 753 753 752 752 752 752 752 752 753 755 755 757 759 760 761 761 761 761 761 761 761 761 759 754 745 739 738 738 738 738 738 738 794 794 793 794 794 795 795 795 795 795 795 795 794 794 794 794 794 794 794 794 794 794 794 793 793 793 793 793 793 793 793 793 793 793 792 792 792 792 792 792 793 793 793 792 792 792 792 792 791 791 790 790 790 790 790 790 790 791 791 791 790 790 790 790 790 790 790 790 790 790 790 790 790 790 790 790 790 790 790 790 790 789 789 789 789 789 789 789 788 788 788 788 789 789 789 789 789 789 789 789 789 789 790 790 790 790 789 789 789 789 788 788 788 787 787 787 787 787 787 787 787 787 787 787 787 787 787 787 787 787 786 786 786 785 785 785 786 786 786 787 787 787 786 786 785 785 785 785 785 784 785 785 785 785 785 785 785 785 785 785 786 786 786 786 786 785 785 785 784 784 784 784 784 784 784 784 785 785 785 785 785 785 785 785 785 784 784 784 784 784 783 783 783 783 783 783 783 783 783 783 783 783 783 782 782 782 782 782 782 783 783 783 783 783 783 783 783 782 782 782 782 782 782 782 782 782 782 781 781 781 781 781 781 781 781 781 782 782 782 781 781 781 781 781 780 780 780 780 780 780 780 780 780 780 780 780 780 780 780 780 780 780 780 780 780 780 780 780 780 780 780 780 780 779 779 779 779 779 779 779 778 778 778 778 778 778 778 778 778 777 777 777 777 777 777 777 777 777 777 777 777 777 777 777 777 777 777 777 776 776 776 776 776 776 776 776 776 776 776 776
776 776 777 777 777 777 777 777 777 777 777 777 777 777 777 777 776 776 776 776 776 776 776 776 776 776 776 776 775 775 775 775 776 776 775 775 775 775 776 775 775 775 775 774 774 774 774 774 774 774 774 774 774 774 774 774 773 773 773 773 773 773 773 773 773 773 773 773 773 773 773 773 773 773 773 773 773 773 773 772 772 772 772 772 772 772 773 773 772 772 772 772 772 772 772 772 772 772 772 772 772 772 772 772 772 771 771 771 771 771 770 770 770 770 770 770 770 770 770 770 770 770 770 770 770 770 770 770 770 770 769 769 769 770 770 770 770 770 770 769 769 769 769 769 769 769 769 768 768 768 768 768 768 768 768 768 768 768 768 768 768 768 768 768 768 768 768 768 768 768 768 768 768 768 768 768 768 768 767 767 767 766 766 767 767 767 767 767 767 767 767 767 767 767 767 766 766 766 766 766 765 765 765 764 764 764 765 765 765 765 766 766 765 765 765 765 765 764 764 764 764 764 764 764 764 764 763 763 763 763 763 762 762 761 760 760 760 760 760 760 760 761 761 760 761 761 761 761 761 761 760 760 761 761 761 760 760 759 759 759 759 758 758 757 756 756 755 755 755 754 754 754 755 754 754 754 754 754 753 753 753 753 753 753 753 754 755 755 754 753 753 753 753 753 753 754 755 756 758 759 760 761 761 761 761 761 761 761 761 761 760 754 745 739 738 738 738 738 738 738 794 794 794 794 794 795 795 795 795 795 795 794 794 794 793 794 794 794 794 794 794 794 794 794 794 793 793 793 793 793 793 793 793 793 793 792 792 792 792 792 793 793 793 792 792 792 792 792 791 791 790 790 790 790 790 790 790 791 791 791 790 790 790 790 790 790 790 790 790 790 790 790 790 790 790 790 790 790 790 790 790 789 789 789 789 789 789 789 789 789 789 789 789 789 789 789 789 789 789 789 789 790 790 790 790 790 790 789 789 789 788 788 788 787 787 787 787 787 787 787 787 787 787 787 787 787 787 787 787 787 786 786 786 786 786 786 786 786 786 786 787 786 786 786 785 786 785 785 785 785 785 785 785 785 785 785 785 786 786 786
786 786 786 786 786 786 785 785 785 784 784 784 784 784 784 784 785 785 785 785 785 785 785 785 785 784 784 784 784 783 783 783 783 783 783 783 783 783 783 783 783 783 783 782 782 782 782 782 783 783 783 783 783 783 783 783 783 783 783 782 783 782 782 782 782 782 782 782 782 782 782 782 782 782 782 782 782 782 782 781 781 781 781 781 781 780 780 780 780 780 780 780 780 780 780 780 780 780 780 780 780 780 780 780 780 780 780 780 780 780 780 780 780 780 779 779 779 779 779 779 778 778 778 778 779 779 778 778 778 777 777 777 777 777 777 777 777 777 777 777 777 777 777 777 777 777 777 777 776 776 776 776 776 776 776 776 776 776 776 776 776 776 777 777 777 777 777 777 777 777 777 777 777 777 777 777 776 776 776 776 776 776 776 776 776 776 776 776 776 775 775 776 776 776 776 776 776 776 776 776 776 775 775 775 774 774 774 774 774 774 774 774 774 774 774 774 774 774 773 773 773 773 773 773 773 773 773 773 773 773 773 773 773 773 773 773 773 773 773 773 772 772 772 772 772 772 773 773 773 772 772 772 772 772 772 772 772 772 772 772 772 772 772 772 772 772 771 771 771 771 770 770 770 770 770 770 770 770 770 770 770 770 770 770 770 770 770 770 770 770 770 769 770 770 770 770 770 770 770 770 769 769 769 769 769 769 769 769 769 769 768 768 768 768 768 769 769 769 769 768 768 768 768 769 769 769 769 769 768 768 768 768 768 768 768 768 768 768 768 768 767 767 767 767 768 768 768 768 768 767 767 767 767 767 767 767 767 767 767 767 766 766 766 765 765 765 765 766 766 766 766 766 766 766 765 765 765 765 765 765 765 765 765 765 765 765 765 764 764 764 764 764 763 762 762 761 761 761 761 762 762 762 762 762 762 762 762 763 763 763 763 763 763 763 762 762 761 761 761 761 760 760 759 758 758 758 757 757 757 757 757 757 757 756 756 756 755 754 753 754 754 755 755 754 754 755 757 757 755 754 754 755 755 755 755 756 757 758 760 761 761 761 761 761 761 761 761 761 761 761 759 754 745 739 738 738 738 738 738 738
795 794 794 794 795 795 795 795 795 795 794 794 794 794 793 794 794 794 794 794 794 794 794 794 794 794 793 793 794 794 793 793 793 793 793 793 792 792 792 792 793 793 792 792 792 792 792 792 791 791 790 790 790 790 790 790 790 791 791 791 791 791 791 791 791 791 791 791 791 791 791 791 790 790 790 790 790 790 790 790 790 789 789 789 789 789 789 789 789 789 789 789 789 789 789 789 789 789 789 789 789 790 790 790 790 790 789 789 789 789 788 788 788 788 788 788 788 788 788 788 788 787 787 787 787 787 787 787 787 787 786 786 786 786 786 786 786 786 786 786 786 786 786 786 786 786 785 785 785 785 785 785 785 785 785 785 786 786 786 786 786 786 786 786 786 786 785 785 785 784 784 784 784 784 784 784 785 785 785 785 785 785 785 785 785 784 784 784 783 783 783 783 783 783 783 783 783 783 783 783 783 783 783 783 783 782 782 783 783 783 783 783 783 783 783 783 783 783 783 783 783 783 783 782 782 782 782 782 782 782 782 782 782 782 782 782 782 782 781 781 781 781 781 781 781 780 780 780 780 780 780 780 780 781 780 780 780 780 780 780 780 780 780 780 780 780 780 780 780 780 780 780 780 780 779 779 779 779 779 779 779 778 778 778 779 779 779 778 778 778 777 777 777 777 777 777 777 777 777 777 777 777 777 777 777 777 777 777 776 776 776 776 776 776 776 776 776 776 776 776 776 777 777 777 777 777 777 777 777 777 777 777 777 777 777 777 777 777 776 776 776 776 776 776 776 776 776 776 776 776 776 776 776 776 776 776 776 776 776 776 776 776 775 775 775 774 774 774 774 774 774 774 774 774 774 774 774 774 774 774 773 773 773 773 773 773 773 773 773 773 773 773 773 773 773 773 773 773 773 773 773 772 772 772 772 772 773 773 773 773 773 773 773 773 773 773 772 772 772 772 772 772 772 772 772 772 772 771 771 771 771 770 770 770 770 770 770 770 770 770 770 770 770 770 770 770 770 770 770 770 770 770 770 770 770 770 770 770 770 770 769 769 769 769 769 769 769 769 769 769 769 769 769 769 769 769 769 769 769 769
769 769 769 769 769 769 769 769 769 769 768 768 768 768 768 768 768 768 768 768 768 768 768 768 768 768 768 768 768 768 768 768 768 768 767 767 767 767 767 767 767 766 766 766 766 766 766 766 766 766 766 766 766 766 765 765 765 765 765 765 765 765 765 765 765 765 765 765 765 765 765 764 764 763 763 762 762 763 763 763 763 763 763 763 763 763 764 764 764 764 764 764 764 764 763 763 763 762 762 762 762 762 761 761 760 760 760 759 759 759 760 760 759 759 758 758 757 756 755 755 757 757 758 757 757 758 759 759 758 757 757 757 758 758 758 759 759 760 761 762 762 761 761 761 761 761 761 761 761 761 759 754 745 739 738 738 738 738 738 738 794 794 794 794 795 795 795 795 795 795 795 794 794 794 794 794 794 794 794 795 794 794 795 794 794 794 793 793 794 794 794 793 793 793 793 793 793 792 792 792 792 792 792 792 792 792 792 792 791 791 790 790 790 790 790 790 790 790 791 791 791 791 791 791 791 791 791 791 791 791 791 791 791 790 790 790 790 790 790 790 790 789 789 789 789 789 789 790 790 790 790 790 790 789 789 789 789 789 789 789 789 789 790 790 790 790 789 789 789 789 788 788 788 788 788 788 788 788 788 788 788 787 787 787 787 787 787 787 787 787 787 787 787 787 786 786 786 786 786 786 786 786 786 785 785 785 785 785 785 785 785 785 785 785 785 785 786 786 786 786 786 786 787 787 786 786 785 785 785 784 784 784 784 784 784 784 785 785 785 785 785 785 785 785 785 784 784 784 783 783 783 783 783 783 783 783 783 784 784 783 783 783 783 783 783 783 783 783 783 783 783 783 783 783 783 783 783 783 783 783 783 783 783 783 783 783 782 782 782 782 782 782 782 782 782 781 781 781 781 781 781 781 781 781 781 780 780 780 780 780 780 781 781 781 781 781 781 781 780 780 780 780 780 780 780 780 780 780 780 780 780 780 780 780 779 779 779 779 779 779 779 779 778 779 779 779 779 778 778 778 778 777 777 777 777 777 777 777 777 777 777 777 777 777 777 777 777 777 777 776 776 776 776 776 776 776 776 776 776 776
776 777 777 777 777 777 777 777 777 777 777 777 777 777 777 777 777 777 777 777 776 776 776 776 776 776 776 776 776 776 776 776 776 776 776 776 776 776 776 776 776 776 775 775 775 774 774 774 774 774 774 774 774 774 774 774 774 774 774 774 774 774 773 773 773 773 773 773 773 773 773 773 773 773 773 773 773 773 773 773 773 772 772 772 772 772 773 773 773 773 773 773 773 773 773 773 773 772 772 772 772 772 772 772 772 772 772 772 771 771 771 770 770 770 770 770 770 770 770 770 770 770 770 770 770 770 770 770 770 770 770 770 770 770 770 770 770 770 770 770 769 769 769 769 769 769 769 769 769 769 769 769 769 769 769 769 769 769 769 769 769 769 769 769 769 769 769 769 769 769 768 768 768 768 768 768 768 768 768 768 768 768 768 768 768 768 768 768 768 768 768 768 768 768 768 768 768 768 767 767 767 767 767 766 766 766 766 766 766 766 766 766 766 766 765 765 765 765 765 766 766 766 766 766 766 766 766 766 765 765 765 765 764 764 764 764 764 764 764 764 764 764 764 764 764 764 764 764 764 764 764 764 764 764 764 764 763 763 763 763 763 763 762 762 762 762 762 761 761 761 762 762 761 761 761 760 760 759 758 758 759 760 760 761 760 760 761 761 760 760 760 760 760 760 760 760 761 761 762 762 762 762 762 761 761 761 761 761 761 761 759 754 745 739 738 738 738 738 738 738 795 794 794 795 795 795 795 795 795 795 795 794 794 794 794 794 794 794 795 795 795 795 795 795 794 794 793 793 793 793 793 793 793 793 793 793 793 792 792 792 792 792 792 792 791 792 792 792 791 791 791 791 790 790 790 790 790 790 790 790 790 791 791 791 791 791 791 791 791 791 791 791 791 790 790 790 790 790 790 790 789 789 789 789 789 789 790 790 790 790 790 790 790 790 789 789 789 789 789 789 789 789 789 790 790 789 789 789 789 789 788 788 788 788 788 788 788 788 788 788 788 787 787 787 787 787 787 787 787 787 787 787 787 787 787 787 787 787 786 786 786 786 785 785 785 785 785 785 784 784 785 785 785 785 785 785 785 786 786 786
786 787 787 787 786 786 786 785 785 785 784 784 784 784 784 784 784 785 785 785 785 785 785 785 785 784 784 784 783 783 784 784 784 784 784 784 784 784 784 784 783 783 783 783 783 783 783 783 783 783 783 783 783 783 783 783 783 783 783 783 783 783 783 783 783 783 783 783 783 782 782 782 782 782 782 781 781 781 781 781 781 781 781 781 781 780 780 780 780 780 781 781 781 781 781 781 781 781 781 780 780 780 780 780 780 780 780 780 780 780 780 780 780 780 779 779 779 779 779 779 779 779 779 779 779 779 779 779 778 778 778 778 777 777 777 777 777 777 777 777 777 777 777 777 777 777 777 777 777 777 776 776 776 776 776 776 776 776 776 776 776 777 777 777 777 777 777 777 777 777 777 777 777 777 777 777 777 777 777 777 777 776 776 776 776 776 776 776 776 776 776 776 776 776 776 776 776 776 776 776 776 776 776 775 775 775 775 774 774 774 774 774 774 775 775 775 775 775 775 774 774 774 774 773 773 773 773 773 773 773 773 773 773 773 773 773 773 773 773 773 773 773 772 772 772 773 773 773 773 773 773 773 773 773 773 773 773 772 772 772 772 772 772 772 772 772 772 772 772 771 771 771 770 770 770 770 770 770 770 770 770 770 770 770 770 770 770 770 770 770 770 770 770 770 770 770 770 770 770 770 769 769 769 769 769 769 769 769 769 769 769 769 769 769 769 769 769 769 769 769 769 769 769 769 769 769 769 769 769 769 768 768 768 768 768 768 768 768 768 768 768 768 768 768 768 768 768 769 768 768 768 768 768 768 768 768 768 768 768 767 767 767 767 767 767 767 767 767 766 766 766 766 766 766 766 765 765 765 766 766 766 766 766 766 766 766 766 766 766 766 765 765 765 765 764 764 764 764 764 764 764 764 764 764 764 764 764 764 764 764 764 764 764 764 764 764 764 764 764 764 763 763 763 763 763 763 763 762 762 762 762 763 762 762 762 762 762 761 761 761 762 762 762 762 762 762 762 762 762 762 761 761 761 761 761 761 762 762 762 762 762 762 762 761 761 761 761 761 761 761 760 754 745 739 738 738 738 738 738 738
795 795 795 795 795 795 795 795 795 795 795 795 794 794 794 794 794 794 795 795 795 795 795 795 794 793 793 792 792 793 793 793 793 793 794 794 793 793 792 792 792 792 792 791 791 792 792 792 791 791 791 791 791 790 790 790 790 790 790 790 790 790 791 791 791 791 791 791 791 791 791 791 791 790 790 790 790 790 790 789 789 789 789 789 789 789 790 790 790 790 790 790 790 790 790 789 789 789 789 789 789 789 789 789 789 789 789 789 789 789 788 788 788 788 788 788 788 788 788 788 788 788 787 787 787 787 787 787 787 787 787 787 787 787 787 787 787 786 786 786 786 785 785 785 785 785 784 784 784 784 784 784 785 785 784 784 785 785 786 786 786 787 787 787 787 786 786 785 785 785 784 784 784 784 784 784 784 784 785 785 785 785 785 785 784 784 784 784 784 784 784 784 784 784 784 784 785 785 784 784 784 784 784 784 783 783 783 783 783 783 783 783 783 784 784 784 784 783 783 783 783 783 783 783 783 783 783 783 783 783 782 782 782 782 781 781 781 781 781 781 781 781 781 781 781 781 780 780 780 780 781 781 781 781 781 781 781 781 781 780 780 780 780 780 780 780 780 780 780 780 780 780 780 780 779 779 779 779 779 779 779 779 779 779 779 779 779 779 779 778 778 778 777 777 777 777 777 777 777 777 778 778 777 777 777 777 777 777 777 777 777 776 776 776 776 776 776 776 776 776 777 777 777 777 777 777 777 777 777 777 777 777 777 777 777 777 777 777 777 777 777 777 776 776 776 776 776 776 776 776 776 776 776 776 776 776 776 776 776 776 776 776 776 775 775 775 775 775 774 774 774 774 775 775 775 775 775 775 775 775 775 774 774 774 773 773 773 773 773 773 773 773 773 773 773 773 773 773 773 773 773 773 773 773 773 773 773 773 773 773 773 773 773 773 773 773 773 772 772 772 772 772 772 772 772 772 772 772 772 771 771 771 770 770 770 770 770 770 770 770 770 770 770 770 770 770 770 770 770 770 770 770 770 770 770 770 770 770 770 770 770 770 770 770 770 769 769 769 769 769 769 769 769 769 769 769 769 769 769 769
769 769 769 769 769 769 769 769 769 769 768 768 768 768 768 768 768 768 768 768 768 768 768 768 768 768 768 769 769 769 769 769 769 769 768 768 768 768 768 767 767 767 767 767 767 767 767 767 767 766 766 766 766 766 766 765 766 766 766 766 766 766 766 766 766 766 766 766 766 766 766 765 765 765 765 765 765 765 765 765 765 765 765 765 765 765 765 765 765 765 765 764 764 764 764 764 764 764 764 764 764 764 764 763 763 763 763 763 763 763 763 763 763 763 762 762 762 762 763 763 763 763 763 763 763 763 762 762 762 762 762 762 762 762 762 762 762 762 762 762 762 762 762 761 761 761 761 761 761 761 760 754 745 739 738 738 738 738 738 738 796 795 795 795 795 795 795 795 795 795 795 795 794 794 794 794 794 794 795 795 795 795 795 795 794 793 792 792 792 792 793 793 793 793 794 794 794 793 792 792 792 792 792 792 792 792 792 792 792 792 791 791 791 790 790 790 790 790 790 790 790 790 790 791 791 791 791 791 791 791 791 791 791 791 790 790 790 789 789 789 789 789 789 789 789 789 790 790 791 791 790 790 790 790 790 790 789 789 789 789 789 789 789 789 789 789 789 789 789 789 788 788 788 788 789 789 789 788 788 788 788 788 787 787 787 787 787 787 787 787 788 788 787 787 787 787 787 786 786 786 785 785 785 785 784 784 784 784 784 784 784 784 784 784 783 783 784 784 785 786 786 787 787 787 787 786 786 786 785 785 784 784 784 784 784 784 784 784 784 785 785 785 785 785 784 784 784 784 784 784 784 785 785 785 785 785 785 785 785 784 784 784 784 784 784 783 783 783 783 783 783 783 784 784 784 784 784 784 783 783 783 783 783 783 783 783 783 783 783 783 782 782 782 782 781 781 781 781 781 781 781 781 781 781 781 781 780 780 780 780 781 781 781 781 781 781 781 781 781 780 780 780 780 780 780 780 780 780 780 780 780 780 780 780 779 779 779 779 779 779 779 779 779 779 779 779 779 779 779 778 778 778 778 777 777 777 777 777 777 778 778 778 778 778 777 777 777 777 777 777 777 777 776 776 776 776 776 776 776 776
777 777 777 777 778 777 777 777 777 777 777 777 777 777 777 777 777 777 777 777 777 777 777 777 776 776 776 776 776 776 776 776 776 776 776 776 776 776 776 776 776 776 776 776 775 775 775 775 775 775 775 775 775 775 775 775 776 776 776 775 775 775 774 774 774 773 773 773 773 773 773 773 773 773 773 773 773 773 773 773 773 773 773 773 773 773 773 773 773 773 773 773 773 773 773 773 773 772 772 772 772 772 772 772 772 772 772 772 772 772 771 771 771 771 770 770 770 770 770 770 770 770 771 771 770 770 770 770 770 770 770 770 770 770 770 770 770 770 770 770 770 770 770 770 770 770 770 770 770 770 770 769 769 769 769 769 769 769 769 769 769 769 769 769 769 769 769 769 769 769 769 768 768 768 768 768 768 768 768 768 768 768 768 768 768 768 768 769 769 769 769 769 769 769 769 768 768 768 768 768 768 768 768 768 767 767 767 767 767 766 766 766 766 766 766 766 766 766 766 766 766 766 766 766 766 766 766 766 766 766 766 766 766 765 765 765 765 765 765 765 765 765 765 765 765 765 765 765 765 765 765 764 764 764 764 764 764 764 764 764 764 764 764 764 764 764 764 763 763 763 763 763 763 763 763 762 762 763 763 763 763 763 763 763 763 763 763 763 763 762 762 762 762 762 762 762 762 762 762 762 762 762 762 762 761 761 761 761 761 761 760 754 745 739 738 738 738 738 738 738 796 796 796 796 796 796 796 796 796 795 795 795 795 794 794 794 794 794 795 795 795 795 795 795 794 793 792 792 792 792 793 793 793 794 795 795 794 793 793 792 792 792 792 792 792 792 792 792 792 792 792 791 791 791 790 790 790 790 790 790 790 790 790 791 791 791 791 791 791 791 791 791 791 791 790 790 790 789 789 789 789 789 789 789 789 790 790 791 791 791 791 791 791 790 790 790 789 789 789 789 789 789 789 789 789 789 789 789 789 789 788 788 788 789 789 789 789 789 788 788 788 788 787 787 787 787 787 787 787 788 788 788 788 787 787 787 786 786 786 785 785 785 784 784 784 784 784 783 783 783 783 783 783 783 783 783 783 784 784 785
786 786 787 787 787 786 786 786 785 785 785 784 784 784 784 784 784 784 784 785 785 785 785 785 784 784 784 784 784 784 784 785 785 785 785 785 785 785 785 785 784 784 784 784 784 784 783 783 783 783 783 783 784 784 784 784 784 784 784 784 784 784 784 783 783 783 783 783 783 782 782 782 782 781 781 781 781 781 781 781 781 781 781 781 781 781 781 780 780 780 781 781 781 781 781 781 781 781 781 780 780 780 780 779 780 780 780 780 780 780 780 780 780 780 780 779 779 779 779 779 779 779 779 779 779 779 779 779 779 779 778 778 778 778 778 778 777 777 777 778 778 778 778 778 778 778 778 777 777 777 777 777 777 777 776 776 776 776 776 776 777 777 777 778 778 778 777 777 777 777 777 777 777 777 777 777 777 777 777 777 777 777 777 777 776 776 776 776 776 776 776 776 776 776 776 776 776 776 776 776 776 776 776 776 776 776 775 775 775 775 775 775 775 775 775 775 776 776 776 776 775 775 775 774 774 774 773 773 773 773 773 773 773 773 773 773 773 773 773 773 773 773 773 773 773 773 773 773 773 773 773 773 773 773 773 773 773 773 772 772 772 772 772 772 772 772 772 772 772 772 772 771 771 771 771 771 770 770 770 770 771 771 771 771 771 771 770 770 770 770 770 770 770 770 770 770 770 770 770 770 770 770 770 770 770 770 770 770 770 770 770 770 769 769 769 769 769 769 769 769 769 769 769 769 769 769 769 769 769 769 769 769 769 769 769 768 768 768 768 768 768 768 768 768 768 768 768 769 769 769 769 769 769 769 769 769 768 768 768 768 768 768 768 768 768 767 767 767 767 767 766 766 766 766 766 766 766 766 766 766 766 766 766 766 766 766 766 766 766 766 766 766 766 766 765 765 765 765 765 765 765 765 765 765 765 765 765 765 765 765 765 764 764 764 764 764 764 764 764 764 764 764 764 764 764 764 764 764 763 763 763 763 763 763 763 762 762 763 763 763 763 763 764 764 763 763 763 763 763 763 763 763 763 763 763 762 762 762 762 762 762 762 762 762 761 761 761 761 761 761 760 754 745 739 738 738 738 738 738 738
796 796 796 796 796 796 796 796 796 796 795 795 795 795 795 795 795 795 795 795 796 796 796 795 794 793 793 792 791 791 792 793 794 795 795 795 794 793 793 792 792 792 792 791 792 792 792 792 792 792 792 791 791 791 791 790 790 790 790 790 790 790 791 791 791 791 791 791 791 791 791 791 791 791 790 790 790 790 789 789 789 789 790 790 790 790 791 791 791 791 791 791 791 791 790 790 789 789 789 789 789 789 789 789 789 789 789 789 789 788 788 788 788 789 789 789 788 788 788 788 788 787 787 787 787 787 787 787 787 787 788 788 787 787 787 786 786 785 785 785 784 784 784 784 784 783 783 783 783 782 782 782 782 782 782 782 783 783 784 785 785 786 786 787 787 786 786 786 785 785 785 785 784 784 784 784 784 784 784 785 785 785 785 785 785 784 784 784 784 784 785 785 786 786 786 786 786 785 785 785 785 784 784 784 784 784 784 783 783 783 783 784 784 784 784 784 784 784 784 784 784 784 784 783 783 783 783 783 783 782 782 782 782 781 781 781 781 781 781 781 781 781 781 781 781 781 781 781 781 781 781 781 781 781 782 781 781 781 781 780 780 780 779 779 779 780 780 780 780 780 780 780 780 780 780 780 779 779 779 779 779 779 779 779 779 779 779 779 779 779 779 778 778 778 778 778 778 777 778 778 778 778 779 778 778 778 778 778 778 778 778 777 777 777 777 777 777 777 777 777 777 777 777 778 778 778 778 777 777 777 777 777 777 777 777 777 777 777 777 777 777 777 777 777 777 777 776 776 776 776 776 776 776 776 776 776 776 776 776 776 776 776 776 776 776 776 776 775 775 775 775 775 775 775 775 775 776 776 776 776 775 775 775 774 774 774 773 773 773 773 773 773 773 773 773 773 773 773 773 773 773 773 773 773 773 773 773 773 773 773 774 773 773 773 773 773 773 773 772 772 772 772 772 772 772 772 772 772 772 772 772 772 771 771 771 771 771 771 771 771 771 771 771 771 771 771 771 771 771 771 771 771 771 771 771 771 771 770 770 770 770 770 770 770 770 770 770 770 770 770 770 770 770 770 769 769 769 769 769 769
769 770 770 769 769 769 769 769 769 769 769 769 769 769 769 769 768 768 768 768 768 768 769 768 768 768 769 769 769 769 769 769 769 769 769 769 768 768 768 768 768 768 768 768 768 768 767 767 767 767 767 766 766 766 766 766 766 766 766 766 766 766 766 766 766 766 766 766 766 766 766 766 766 766 766 766 766 766 765 765 765 765 765 765 765 765 765 765 765 765 765 764 764 764 764 764 764 764 764 764 764 764 764 764 764 764 764 764 763 763 763 763 763 763 762 762 762 763 763 763 763 764 764 764 764 763 763 763 763 763 763 763 763 763 763 763 762 762 762 762 762 762 762 762 762 761 761 761 761 762 760 754 745 739 738 738 738 738 738 738 796 796 796 796 796 796 796 796 796 796 796 796 795 795 795 795 796 796 796 796 796 796 796 795 795 794 793 791 788 787 789 793 795 795 795 795 794 793 793 793 792 792 792 791 792 792 792 792 792 792 792 792 791 791 791 791 791 790 790 791 791 791 791 791 791 790 791 791 791 791 791 792 791 791 791 790 790 790 790 790 790 790 790 790 790 790 791 791 791 791 791 791 791 791 791 790 790 789 789 789 789 789 789 789 788 788 788 788 788 788 788 788 788 788 788 788 788 788 788 788 788 787 787 787 787 787 787 787 787 787 787 787 787 787 787 786 786 785 785 784 784 784 783 783 783 783 782 782 782 782 782 782 782 782 782 782 782 783 783 784 785 785 786 786 787 786 786 786 786 785 785 785 785 785 784 784 784 784 785 785 785 785 785 785 785 785 785 785 785 785 785 785 786 786 786 786 786 786 785 785 785 784 784 784 784 784 784 784 784 784 784 784 784 784 784 784 784 784 784 784 784 784 784 783 783 783 783 783 783 783 782 782 782 782 781 781 781 781 781 781 781 781 781 781 781 781 781 781 781 781 781 781 781 782 782 782 781 781 781 780 780 780 779 779 779 780 780 780 780 780 780 780 780 780 780 780 780 780 779 779 779 779 779 779 779 779 779 779 779 779 779 778 778 778 778 778 778 778 778 778 778 779 779 779 779 779 778 778 778 778 778 778 777 777 777 777 777 777 777 777
777 777 777 778 778 778 778 777 777 777 777 777 777 777 777 777 777 777 777 777 777 777 777 777 777 777 777 776 776 776 776 776 776 776 777 777 776 776 776 776 776 776 776 776 776 776 776 776 776 776 775 775 775 775 775 776 776 776 776 776 775 775 775 774 774 774 774 773 773 773 773 773 773 773 773 773 773 773 773 773 773 773 773 773 773 773 773 773 774 774 774 774 773 773 773 773 773 773 772 772 772 772 772 772 772 772 772 772 772 772 772 772 772 771 771 771 771 771 771 771 771 771 772 772 772 771 771 771 771 771 771 771 771 771 771 771 771 771 771 770 771 771 771 771 770 770 770 770 770 770 770 770 770 770 770 770 770 770 770 770 770 770 770 770 769 769 769 769 769 769 769 769 769 769 769 769 769 768 768 769 769 769 769 769 769 769 769 769 769 769 769 769 769 769 769 769 768 768 768 768 768 768 768 768 768 768 768 768 767 767 767 767 767 767 766 766 766 766 766 766 766 766 766 766 766 766 766 766 766 766 766 766 766 766 766 766 766 766 766 766 766 766 766 766 766 766 766 765 765 765 765 764 764 764 764 764 764 764 764 764 764 764 764 764 764 764 764 764 763 763 763 763 763 763 762 762 762 763 763 763 763 763 764 764 764 764 763 763 763 763 763 763 764 764 763 763 763 762 762 762 762 762 762 762 762 762 762 762 762 762 760 754 745 740 738 738 738 738 738 738 797 796 796 796 796 796 796 796 796 796 796 796 796 796 796 796 796 797 797 797 796 796 796 795 795 794 793 790 784 781 786 793 795 795 796 795 794 793 793 793 792 792 792 792 792 792 792 792 792 792 792 792 791 791 791 790 790 790 791 791 791 790 790 790 790 790 790 791 791 791 791 792 792 791 791 791 791 790 790 790 790 790 790 790 790 790 791 791 791 791 791 791 791 791 791 790 790 790 789 789 789 789 789 789 788 788 788 788 788 788 788 788 788 788 788 788 788 788 788 788 788 787 787 787 787 787 787 787 787 787 787 787 787 787 786 786 785 785 784 784 784 783 783 783 783 782 782 782 782 782 781 781 781 781 782 782 782 782 783 784
784 785 786 786 786 786 786 786 786 786 785 785 785 785 785 785 784 784 785 785 785 785 785 785 785 785 785 785 785 785 785 785 786 786 786 786 786 786 785 785 785 785 784 784 784 784 784 784 784 784 784 784 784 784 784 784 784 784 784 784 784 784 784 783 783 783 783 783 783 783 783 782 782 782 782 781 781 781 781 781 781 781 781 781 781 781 781 781 781 781 781 781 781 782 782 782 781 781 781 780 780 780 779 780 780 780 780 780 780 780 780 780 780 780 780 780 780 780 780 779 779 779 779 779 779 779 779 779 779 779 779 779 778 778 778 778 778 778 778 779 779 779 779 779 779 779 779 778 778 778 778 778 778 777 777 777 777 777 777 777 777 777 778 778 778 778 778 777 777 777 777 777 777 777 777 777 777 777 777 777 777 777 777 777 777 777 777 777 777 777 777 777 776 776 777 777 777 776 776 776 776 776 776 776 776 776 776 776 776 776 776 775 775 775 775 775 776 776 776 776 775 775 775 774 774 774 774 774 774 774 774 774 773 773 773 773 773 773 774 774 774 774 773 773 773 773 773 774 774 774 774 774 774 773 773 773 773 773 773 772 772 772 773 773 772 772 772 772 772 772 772 772 772 772 771 771 772 772 772 772 772 772 772 772 772 772 772 772 772 772 771 771 771 771 771 771 771 771 771 771 771 771 771 771 771 771 771 771 771 770 770 770 770 770 770 770 770 770 770 770 770 770 770 770 769 769 769 769 769 769 769 769 769 769 769 769 769 769 769 769 769 769 769 769 769 769 769 769 769 769 769 769 769 769 769 769 768 768 768 768 768 768 768 768 768 768 768 768 768 767 767 767 767 767 767 767 766 766 766 766 766 766 766 766 766 766 766 766 766 766 766 766 766 766 766 766 766 766 766 766 766 766 766 766 766 766 766 765 765 765 765 765 764 764 764 764 765 765 764 764 764 764 764 764 764 764 764 764 763 763 763 763 763 763 762 762 762 763 763 763 763 763 764 764 764 764 763 763 763 763 763 764 764 764 764 763 763 762 762 762 762 761 761 762 762 762 762 762 762 762 760 754 746 740 738 738 738 738 738 738
797 797 796 796 796 796 796 796 796 796 796 796 796 796 796 796 797 797 797 797 796 796 796 795 795 794 793 790 784 781 787 793 795 795 795 795 794 794 793 793 793 792 792 792 792 792 792 792 792 792 792 792 792 791 791 788 787 788 790 791 791 790 790 790 790 790 790 790 791 791 791 791 792 791 791 791 791 791 791 790 790 790 790 790 790 790 790 791 791 791 791 791 791 791 791 791 790 790 789 789 789 789 789 789 789 789 789 789 789 788 788 788 788 788 788 788 788 788 788 788 788 788 787 787 787 787 787 787 787 787 787 787 787 786 786 785 785 784 784 784 783 783 783 783 783 782 782 782 781 781 781 781 781 781 781 782 782 782 783 784 784 785 785 786 786 786 786 786 786 786 786 785 785 785 785 785 785 785 785 785 785 786 786 785 785 785 785 785 785 785 785 785 786 786 786 786 785 785 785 785 785 785 784 784 784 784 784 784 784 784 784 784 784 784 784 784 784 784 784 784 784 784 784 783 783 783 783 783 783 783 783 783 783 782 782 782 781 781 781 781 781 781 781 782 782 781 781 781 781 781 781 781 782 782 782 782 781 781 781 780 780 780 780 780 780 780 780 780 781 781 781 781 781 780 780 780 780 780 780 780 779 779 779 779 779 779 779 779 779 779 779 779 778 778 778 778 778 778 778 779 779 779 779 779 779 779 779 779 778 778 778 778 778 778 778 778 778 777 777 777 777 777 778 778 778 778 778 778 778 778 777 777 777 777 777 777 777 777 777 777 777 777 777 777 777 777 777 777 777 777 777 777 777 777 777 777 777 776 776 776 776 776 776 776 776 776 776 776 776 776 776 776 775 775 775 775 775 775 775 775 775 775 774 774 774 774 774 774 774 774 774 774 774 773 773 774 774 774 774 774 774 774 774 774 774 774 774 774 774 774 774 774 774 774 773 773 773 773 773 773 773 773 773 773 773 773 772 772 772 772 772 772 772 772 772 772 772 772 772 772 772 772 772 772 772 772 772 772 772 772 772 772 771 771 771 771 771 771 771 771 771 771 771 771 771 771 771 771 771 771 770 770 770 770 770 770 770 770 770 770
770 770 770 770 769 769 769 769 769 769 769 769 769 769 769 769 769 769 769 769 769 769 769 769 769 769 769 769 769 769 769 769 769 769 769 768 768 768 768 768 768 768 768 768 768 768 768 768 768 768 767 767 767 767 767 767 767 767 767 767 766 766 766 766 766 766 766 766 766 766 766 766 766 766 766 766 766 766 766 766 766 766 766 766 766 766 766 765 765 765 765 765 764 764 764 765 765 765 765 764 764 764 764 764 764 764 764 764 763 763 763 763 763 763 762 762 763 763 763 763 763 763 764 764 764 764 763 763 763 763 763 764 764 764 764 763 763 762 762 762 761 761 761 762 762 762 762 762 762 762 760 755 746 740 738 738 738 738 738 738 797 797 796 796 796 796 796 796 796 796 796 796 796 796 796 797 797 797 797 796 796 796 796 795 795 794 793 792 789 788 791 794 795 795 795 795 794 793 793 793 793 792 792 792 792 792 792 792 792 792 792 792 792 792 791 787 785 787 791 791 791 790 790 790 790 790 790 790 790 791 791 791 791 791 791 791 791 791 791 790 790 790 790 790 790 790 790 791 791 791 791 791 791 791 791 791 790 790 790 789 789 789 789 789 789 789 789 789 789 788 788 788 788 788 788 788 788 788 788 788 788 788 788 787 787 787 787 787 787 787 787 787 786 786 786 785 785 784 784 784 783 783 783 782 782 782 782 782 782 781 781 781 782 782 782 782 782 783 783 784 784 785 785 786 786 786 786 786 786 786 786 786 786 786 785 785 785 785 785 786 786 786 786 785 785 785 785 785 785 785 785 785 785 785 785 785 785 785 785 785 785 784 784 784 784 784 784 784 784 784 784 784 784 784 784 784 784 784 784 784 784 784 784 783 783 783 783 783 783 783 783 783 783 783 783 782 782 782 782 782 782 782 782 782 782 782 782 782 782 782 782 782 782 782 782 782 781 781 780 780 780 780 780 780 780 780 780 781 781 781 781 781 781 781 780 780 780 780 780 780 779 779 779 779 779 780 780 780 780 779 779 779 779 778 778 778 778 778 779 779 779 779 779 779 779 779 779 779 779 779 779 778 778 778 778 778 778 778 778 778
778 778 778 778 778 778 778 778 778 778 778 778 777 777 777 777 777 777 777 777 777 777 777 777 777 777 777 777 777 777 777 777 777 777 777 777 777 776 776 776 776 776 776 776 776 776 776 776 776 776 776 776 775 775 775 775 775 775 775 775 775 775 774 774 774 774 774 774 774 774 774 774 774 774 774 774 774 774 774 774 774 774 774 774 774 774 774 774 774 774 774 774 774 774 774 773 773 773 773 773 773 773 773 773 773 773 772 772 772 772 772 772 772 772 772 772 772 772 772 772 772 772 772 772 772 772 772 772 772 772 772 772 772 771 771 771 771 771 771 771 771 771 771 771 771 771 771 771 771 771 770 770 770 770 770 770 770 770 770 770 770 770 770 770 770 769 769 769 769 769 769 769 769 769 769 769 769 769 769 769 769 769 769 769 769 769 769 769 769 769 769 769 769 769 769 768 768 768 768 768 768 769 769 769 768 768 768 768 768 768 768 768 768 767 767 767 767 767 767 767 767 766 766 766 766 766 766 766 767 767 766 766 766 766 766 766 766 766 766 766 766 766 766 766 766 766 766 766 765 765 765 765 764 764 765 765 765 765 765 765 765 765 765 764 764 764 764 764 763 763 763 763 763 763 763 762 763 763 763 763 763 763 763 764 763 763 763 763 763 763 763 764 764 764 763 763 762 762 762 762 761 761 761 762 762 762 762 762 762 762 761 755 746 740 738 738 738 738 738 738 796 796 796 796 796 796 795 795 796 796 796 796 796 796 796 796 796 797 796 796 796 796 796 795 795 795 794 793 792 793 794 795 795 795 795 795 794 794 794 794 793 793 793 793 793 793 793 793 792 792 792 792 792 792 792 790 789 790 792 792 791 791 791 790 790 790 790 790 790 791 791 791 791 791 791 791 791 791 791 791 790 790 791 791 790 790 790 791 791 791 791 791 791 791 791 791 790 790 790 790 790 789 789 789 789 789 789 789 789 788 788 788 788 788 788 788 788 788 788 788 788 788 788 788 787 787 787 787 787 787 787 787 787 786 786 786 785 785 784 784 783 783 783 782 782 782 782 782 782 782 782 782 782 782 782 782 782 783 784 784
784 785 785 786 786 786 786 786 786 786 786 786 786 786 786 786 785 786 786 786 786 786 786 785 785 785 785 785 785 785 785 785 785 785 785 785 785 785 785 785 785 784 784 784 784 784 784 784 784 784 784 784 784 784 784 784 784 784 784 784 784 784 784 784 783 784 784 784 784 783 783 783 783 783 783 783 783 782 782 782 782 782 782 782 782 782 782 782 782 782 782 782 782 782 782 781 781 781 781 780 780 780 780 780 780 780 781 781 781 781 781 781 781 781 780 780 780 780 780 780 779 779 779 779 780 780 780 780 780 780 779 779 779 779 778 778 778 778 779 779 779 779 779 779 779 779 779 779 779 779 779 779 778 778 778 778 778 778 778 778 778 778 778 779 779 778 778 778 778 778 778 778 778 778 778 777 777 777 777 777 777 777 777 777 777 777 777 777 777 777 777 777 777 777 777 777 777 776 776 776 776 776 776 776 776 776 776 776 776 776 776 776 775 775 775 775 775 775 775 775 775 774 774 774 774 774 774 774 774 774 774 774 774 774 774 774 774 774 774 774 774 774 774 774 774 774 774 774 774 774 774 774 774 774 774 773 773 773 773 773 773 773 773 773 773 773 772 772 772 772 772 772 772 772 772 772 772 772 772 772 772 772 772 772 772 772 772 772 773 773 773 772 772 772 771 771 771 771 771 771 771 771 771 771 771 771 771 771 771 771 770 770 770 770 770 770 770 770 770 770 770 770 770 770 770 770 770 770 770 770 769 769 769 769 769 770 770 770 770 769 769 769 769 769 769 769 769 769 769 769 769 769 769 769 769 768 768 768 768 768 769 769 769 769 769 769 769 768 768 768 768 768 768 768 768 767 767 767 767 767 767 766 766 766 766 766 767 767 767 767 767 766 766 766 766 766 766 766 766 766 766 766 766 766 766 766 766 766 765 765 765 765 765 765 765 765 765 765 765 765 765 765 765 764 764 764 764 764 763 763 763 763 763 763 763 763 763 763 763 763 763 763 763 763 763 763 763 763 763 763 763 764 764 764 763 763 762 762 762 762 761 761 762 762 762 762 762 762 762 762 761 755 746 740 738 738 738 738 738 738
796 796 796 796 796 796 795 795 796 796 796 796 796 796 797 796 796 796 796 796 796 796 796 796 795 795 795 794 794 794 795 795 795 795 795 795 795 794 794 794 794 794 793 794 794 794 793 793 793 793 793 793 792 793 793 793 793 793 793 793 792 792 791 791 791 791 790 790 790 791 791 791 791 791 791 791 791 791 791 791 791 791 791 791 791 791 791 791 791 791 791 791 791 791 791 791 791 791 790 790 790 790 789 789 789 789 789 789 789 789 789 788 788 788 788 788 788 788 788 788 788 788 788 788 788 787 787 787 787 787 787 787 787 787 787 786 786 785 784 784 783 783 783 782 782 782 782 782 782 782 782 782 782 782 782 783 783 783 784 784 784 785 785 786 786 786 786 786 786 786 786 786 786 786 786 786 786 786 786 786 786 786 785 785 785 785 785 785 785 785 785 785 785 785 785 785 785 785 785 785 784 785 785 785 785 784 784 784 784 784 784 784 784 784 784 784 784 784 784 784 784 784 784 784 784 784 784 784 784 784 784 784 784 784 783 783 783 783 783 783 783 783 782 782 782 782 782 782 782 782 782 782 782 782 782 781 781 781 781 781 780 780 780 780 780 780 781 781 781 781 781 781 781 781 780 780 780 780 780 780 779 780 780 780 780 780 780 780 780 780 780 779 779 779 778 778 778 778 778 779 779 779 779 779 779 779 779 779 779 779 779 779 779 779 779 779 779 778 778 778 778 779 779 779 779 779 779 779 778 778 778 778 778 778 778 778 777 777 777 777 777 777 777 777 777 777 777 777 777 777 777 777 777 777 777 777 777 777 776 776 776 776 776 776 776 776 776 776 776 776 776 776 776 775 775 775 775 775 775 775 775 774 774 774 774 774 774 774 774 774 774 774 774 774 774 774 774 774 774 774 774 774 774 774 774 774 774 774 774 774 774 774 773 773 773 773 773 773 773 773 773 773 773 773 773 773 773 772 772 772 772 772 772 772 772 772 772 772 772 772 772 772 772 772 772 772 772 773 773 773 773 772 772 772 771 771 771 771 771 771 771 771 771 771 771 771 772 771 771 771 771 770 770 770 770 770 770 770 770 770
770 770 770 770 770 770 770 770 770 770 770 770 770 770 770 770 770 770 770 770 770 770 769 769 769 769 769 769 769 769 769 769 769 769 769 769 768 768 768 768 769 769 769 769 769 769 769 769 768 768 768 768 768 768 768 768 767 767 767 767 767 767 767 767 767 767 767 767 767 767 767 767 767 766 766 766 766 766 766 766 766 766 766 766 766 766 766 766 766 765 765 765 765 765 765 765 765 765 765 765 765 765 765 764 764 764 764 764 764 763 763 763 763 763 763 763 763 763 763 763 763 763 763 763 763 763 763 763 763 763 763 764 764 763 763 762 762 762 762 762 761 762 762 762 762 762 762 762 762 762 761 755 746 740 738 738 738 738 738 738 796 796 796 796 796 796 795 795 796 796 796 796 797 797 797 797 797 797 796 796 796 796 796 796 795 795 795 794 794 795 795 795 795 795 795 795 795 795 795 795 795 795 795 795 795 795 794 794 793 793 793 793 793 793 794 795 795 795 794 793 792 792 792 791 791 791 790 790 791 791 791 791 792 792 792 792 792 792 792 791 791 791 791 791 791 791 791 791 791 791 791 791 791 791 791 791 791 791 791 790 790 790 789 789 789 789 789 789 789 789 789 789 789 788 788 788 788 788 789 789 789 789 788 788 788 788 788 788 788 788 788 788 788 788 787 787 786 786 785 784 784 783 783 783 783 783 783 783 783 783 783 783 783 783 783 783 783 783 784 784 785 785 786 786 787 787 786 786 786 786 786 786 786 787 787 787 786 786 786 786 786 786 785 785 785 785 785 785 785 785 785 785 785 785 784 785 785 785 785 785 785 785 785 785 785 785 785 785 785 784 784 784 784 784 784 784 784 784 784 784 784 784 783 783 784 784 784 784 784 784 784 784 784 784 784 784 783 783 783 783 783 783 783 783 783 783 782 782 782 782 782 782 782 782 781 781 781 781 781 781 781 781 781 781 781 781 781 781 781 781 781 781 781 781 780 780 780 780 780 780 780 780 780 780 780 780 780 780 780 780 780 779 779 779 779 778 778 778 778 779 779 779 779 779 779 779 779 779 779 779 779 779 779 779 779 779 779 779 779 779
779 779 779 779 779 779 779 779 779 778 778 778 778 778 778 778 777 777 777 777 777 777 777 777 777 777 777 777 777 777 777 777 777 777 777 777 777 777 776 776 776 776 776 776 776 776 776 776 776 776 776 776 776 775 775 775 775 775 775 775 774 774 774 774 774 774 774 774 774 775 775 774 774 774 774 774 774 774 774 775 775 775 775 774 774 774 774 774 774 774 774 773 773 773 773 773 773 773 773 773 774 773 773 773 773 773 773 772 772 772 772 772 772 772 772 772 772 772 772 772 772 772 772 772 772 773 773 773 773 773 773 773 772 772 772 771 771 771 771 771 771 771 771 771 771 771 772 772 771 771 771 771 771 771 771 771 770 770 770 770 770 770 770 770 770 770 770 770 770 770 770 770 770 770 770 770 770 770 770 770 770 770 770 769 769 769 769 769 769 769 769 769 769 769 769 769 769 768 768 769 769 769 769 769 769 769 769 769 769 768 768 768 768 768 768 768 768 767 767 767 767 767 767 767 767 767 768 768 768 767 767 767 767 767 766 766 766 766 766 766 766 766 766 766 766 766 766 766 766 765 765 765 765 765 765 765 765 765 765 765 765 765 765 764 764 764 764 764 764 764 764 764 764 764 764 764 764 763 763 763 763 763 764 763 763 763 763 763 763 763 763 764 763 763 763 762 762 762 762 762 762 762 762 762 762 762 762 762 762 762 761 755 746 740 738 738 738 738 738 738 796 796 796 796 796 795 795 796 796 796 796 797 797 797 797 797 797 797 797 797 796 796 796 796 795 795 794 794 794 794 795 795 795 795 795 795 796 796 796 796 796 796 795 796 796 795 795 794 794 794 794 793 793 793 794 795 795 795 794 793 793 792 792 792 791 791 791 791 791 791 791 791 792 792 792 792 792 792 792 792 791 791 791 791 791 791 791 791 791 791 791 791 791 791 791 791 791 791 791 791 790 790 790 789 789 789 789 789 789 789 789 789 789 789 788 788 789 789 789 789 789 789 789 788 788 788 788 788 788 788 788 788 788 788 788 788 787 787 786 785 784 784 783 783 783 783 783 783 783 783 783 783 783 783 783 783 783 784 784 785
