730.961 730.919 730.918 730.914 730.905 730.901 730.9 730.9 730.9 730.9 730.9 730.898 730.898 730.898 730.9 730.897 730.889 730.883 730.889 730.897 730.9 730.9 730.9 730.868 730.732 730.512 730.355 730.29 730.21 730.144 730.238 730.489 730.726 730.766 730.534 730.172 729.927 729.797 729.623 729.425 729.314 729.284 729.315 729.432 729.585 729.727 729.89 730.076 730.24 730.334 730.328 730.292 730.312 730.299 730.147 729.936 729.672 729.325 729.068 728.997 728.98 728.942 728.876 728.761 728.684 728.735 728.792 728.745 728.711 728.782 728.874 728.887 728.811 728.705 728.63 728.552 728.377 728.13 727.964 727.927 727.943 727.952 727.937 727.916 727.877 727.744 727.53 727.352 727.707 729.53 732.379 734.314 734.801 734.796 734.791 734.787 734.783 734.78 746.169 746.192 746.189 746.12 746.011 745.958 746.028 746.14 746.174 746.134 746.087 746.06 746.058 746.058 745.975 745.76 745.511 745.349 745.285 745.287 745.28 745.195 745.071 745.011 745.029 745.019 744.965 744.979 745.056 745.05 744.936 744.824 744.737 744.672 744.641 744.508 744.203 743.936 743.817 743.723 743.656 743.707 743.836 743.977 744.117 744.312 744.684 745.172 745.457 745.323 744.907 744.504 744.239 744.043 743.831 743.614 743.573 743.854 744.196 744.273 744.15 744.011 743.91 743.817 743.622 743.318 743.104 743.127 743.359 743.638 743.752 743.656 743.456 743.29 743.272 743.406 743.589 743.698 743.684 743.737 744.076 744.528 744.719 744.507 744.088 743.854 743.963 744.084 743.853 743.356 742.938 742.772 742.758 742.731 742.652 742.569 742.483 742.38 742.292 742.28 742.429 742.715 743.015 743.354 743.757 744.065 744.152 744.062 743.897 743.709 743.527 743.396 743.315 743.242 743.171 743.124 743.094 743.051 742.997 742.969 742.996 743.063 743.122 743.142 743.142 743.134 743.117 743.094 743.033 742.884 742.694 742.583 742.569 742.535 742.418 742.354 742.498 742.745 742.854 742.744 742.522 742.398 742.478 742.596 742.575 742.498 742.46 742.426 742.424 742.407 742.238 742.026 741.923 741.896 741.898 741.907 741.89 741.87 741.876 741.805 741.542 741.198 740.99 740.942 740.922 740.83 740.664 740.546 740.553 740.536 740.372 740.19 740.104 740.082 740.083 740.09 740.094 740.097 740.099 740.1 740.094 740.073 740.045 739.967 739.742 739.472 739.425 739.602 739.737 739.65 739.403 739.202 739.14 739.136 739.121 739.113 739.093 736.941 726.982 708.162 690.241 681.437 678.935 677.232 674.978 672.806 670.892 669.183 667.789 666.505 664.997 663.397 662.006 660.86 659.878 659.036 658.282 657.597 657.004 656.473 655.975 655.51 655.043 654.539 654.065 653.711 653.473 653.275 653.077 652.898 652.79 652.78 652.824 652.862 652.891 652.925 652.974 653.068 653.203 653.342 653.503 653.708 653.958 654.371 655.034 655.832 656.703 657.682 658.744 659.791 660.715 661.598 662.641 663.818 664.951 665.963 666.896 667.814 668.701 669.553 670.468 671.51 672.661 673.932 675.338 676.839 678.316 679.62 680.646 681.485 682.367 683.314 684.136 684.81 685.603 686.959 691.651 704.378 721.983 733.818 737.073
649.456 649.211 648.989 648.78 648.528 648.201 647.765 647.27 646.842 646.543 646.352 646.218 646.11 646.038 645.983 645.88 645.695 645.48 645.287 645.118 644.958 644.781 644.606 644.485 644.413 644.336 644.224 644.125 644.144 644.335 644.623 644.881 645.114 645.446 646.286 649.581 657.55 669.364 684.617 703.765 721.203 730.598 733.324 733.711 733.765 733.839 733.924 734.04 734.163 734.232 734.319 734.455 734.455 734.273 734.116 734.052 734.004 733.96 733.93 733.911 733.906 733.908 733.909 733.915 733.937 733.958 733.956 733.937 733.922 733.92 733.92 733.912 733.901 733.886 733.856 733.812 733.723 733.538 733.31 733.191 733.253 733.375 733.4 733.337 733.276 733.291 733.416 733.515 733.416 733.192 733.009 732.898 732.847 732.84 732.806 732.723 732.616 732.466 732.347 732.388 732.455 732.34 732.145 732.047 732.071 732.18 732.244 732.15 732.024 732.004 732.034 732.005 731.885 731.729 731.633 731.587 731.49 731.325 731.163 731.046 730.983 730.961 730.953 730.944 730.928 730.912 730.904 730.901 730.895 730.878 730.859 730.833 730.793 730.785 730.815 730.797 730.705 730.56 730.403 730.293 730.204 730.106 730.035 729.99 729.954 729.932 729.921 729.913 729.919 729.957 730.044 730.219 730.433 730.53 730.61 730.975 731.479 731.66 731.451 731.152 730.975 730.932 730.942 730.936 730.916 730.903 730.9 730.9 730.9 730.9 730.9 730.9 730.9 730.9 730.9 730.9 730.898 730.898 730.898 730.9 730.9 730.9 730.9 730.884 730.809 730.68 730.59 730.533 730.407 730.288 730.368 730.611 730.797 730.758 730.466 730.091 729.849 729.706 729.492 729.248 729.115 729.106 729.195 729.382 729.602 729.791 729.984 730.218 730.447 730.562 730.492 730.326 730.222 730.163 730.054 729.9 729.651 729.301 729.053 728.995 728.993 728.973 728.935 728.865 728.834 728.901 728.956 728.921 728.883 728.913 728.953 728.924 728.812 728.68 728.584 728.508 728.38 728.19 728.041 727.996 728.02 728.041 728.008 727.959 727.925 727.85 727.722 727.587 727.91 729.657 732.436 734.338 734.817 734.813 734.808 734.803 734.799 734.797 746.388 746.433 746.436 746.321 746.151 746.076 746.152 746.251 746.237 746.141 746.056 746.013 746.015 746.031 745.962 745.744 745.483 745.319 745.253 745.233 745.201 745.093 744.926 744.846 744.921 745.005 745.027 745.085 745.166 745.149 745.046 744.963 744.893 744.774 744.614 744.393 744.09 743.826 743.667 743.545 743.493 743.583 743.753 743.921 744.063 744.234 744.573 745.054 745.354 745.238 744.874 744.567 744.375 744.183 743.934 743.657 743.56 743.842 744.224 744.312 744.182 744.047 743.953 743.867 743.681 743.377 743.148 743.155 743.386 743.671 743.818 743.8 743.677 743.527 743.491 743.627 743.809 743.885 743.808 743.791 744.076 744.51 744.73 744.559 744.168 743.968 744.107 744.203 743.907 743.378 742.971 742.797 742.728 742.628 742.504 742.434 742.41 742.368 742.303 742.301 742.471 742.769 743.06 743.376 743.769 744.116 744.261 744.182 743.996 743.822 743.689 743.6 743.535 743.43 743.297 743.208 743.159 743.113 743.088 743.104 743.155
655.332 654.867 654.387 653.992 653.695 653.447 653.209 652.987 652.843 652.82 652.862 652.9 652.93 652.961 653.015 653.132 653.306 653.492 653.704 653.951 654.223 654.629 655.247 655.961 656.726 657.623 658.661 659.731 660.71 661.684 662.84 664.081 665.19 666.142 667.005 667.839 668.675 669.532 670.474 671.545 672.694 673.867 675.097 676.486 678.046 679.558 680.781 681.771 682.733 683.628 684.28 684.745 685.323 686.259 689.379 699.271 715.878 730.297 736.422 737.317 737.184 737.066 736.984 736.962 736.973 736.99 736.991 736.944 736.865 736.833 736.87 736.902 736.888 736.846 736.813 736.8 736.728 736.513 736.255 736.11 736.067 736.045 736.025 736.004 736.008 736.107 736.268 736.331 736.273 736.2 736.14 736.086 736.04 735.987 735.939 735.923 735.937 736.031 736.281 736.568 736.686 736.691 736.76 736.875 736.934 736.936 736.926 736.919 736.881 736.731 736.448 736.105 735.716 735.294 734.967 734.77 734.632 734.479 734.236 733.95 733.548 731.016 721.703 704.889 688.629 680.177 677.725 676.628 675.322 673.941 672.644 671.475 670.425 669.38 668.212 667.025 666.012 665.084 664.002 662.786 661.636 660.608 659.626 658.692 657.857 657.044 656.139 655.19 654.363 653.721 653.163 652.585 651.987 651.414 650.893 650.434 650.061 649.786 649.602 649.459 649.27 649.023 648.76 648.465 648.129 647.756 647.31 646.833 646.443 646.19 646.049 645.965 645.902 645.86 645.819 645.71 645.512 645.302 645.139 645.01 644.864 644.668 644.461 644.327 644.281 644.245 644.163 644.092 644.147 644.373 644.701 645.016 645.288 645.928 649.036 658.979 677.038 696.677 712.055 723.552 730.905 733.52 733.837 733.846 733.861 733.909 734.012 734.2 734.407 734.517 734.582 734.666 734.62 734.401 734.217 734.136 734.054 733.971 733.929 733.918 733.926 733.937 733.942 733.956 733.993 734.028 734.023 733.991 733.968 733.965 733.96 733.94 733.925 733.921 733.912 733.897 733.854 733.716 733.496 733.369 733.455 733.614 733.65 733.585 733.525 733.537 733.643 733.714 733.576 733.301 733.083 732.969 732.914 732.895 732.886 732.867 732.806 732.659 732.521 732.542 732.611 732.521 732.329 732.177 732.12 732.195 732.299 732.258 732.129 732.096 732.163 732.203 732.138 732.002 731.891 731.826 731.728 731.554 731.345 731.172 731.08 731.064 731.078 731.076 731.031 730.97 730.93 730.913 730.905 730.891 730.876 730.857 730.834 730.832 730.854 730.853 730.807 730.718 730.62 730.534 730.395 730.22 730.126 730.096 730.047 729.99 729.955 729.932 729.929 729.96 730.03 730.161 730.325 730.411 730.507 730.887 731.422 731.635 731.441 731.15 730.978 730.942 730.966 730.969 730.94 730.914 730.906 730.905 730.904 730.902 730.901 730.9 730.9 730.9 730.9 730.9 730.9 730.9 730.9 730.9 730.9 730.9 730.9 730.892 730.857 730.803 730.775 730.743 730.628 730.511 730.558 730.729 730.823 730.689 730.341 729.976 729.765 729.632 729.433 729.209 729.094 729.107 729.226 729.442 729.671 729.848 730.036 730.298 730.567 730.689 730.565 730.298 730.106 730.029 729.971 729.867 729.625 729.27 729.034
744.051 744.029 743.898 743.606 743.344 743.325 743.543 743.8 743.94 743.964 743.897 743.753 743.67 743.75 743.889 743.93 743.826 743.776 744.013 744.429 744.699 744.611 744.283 744.101 744.214 744.266 743.939 743.428 743.074 742.923 742.828 742.694 742.564 742.524 742.548 742.538 742.479 742.475 742.614 742.849 743.096 743.401 743.81 744.214 744.436 744.395 744.206 744.03 743.917 743.852 743.786 743.65 743.487 743.387 743.315 743.236 743.21 743.267 743.365 743.424 743.382 743.266 743.177 743.143 743.121 743.101 743.078 743.025 742.955 742.895 742.815 742.672 742.51 742.461 742.594 742.794 742.906 742.885 742.76 742.659 742.703 742.778 742.728 742.636 742.591 742.521 742.438 742.365 742.202 741.992 741.875 741.841 741.806 741.749 741.721 741.759 741.829 741.815 741.59 741.259 741.094 741.132 741.156 741.061 740.936 740.854 740.795 740.669 740.442 740.226 740.137 740.158 740.185 740.156 740.111 740.095 740.097 740.099 740.078 740.01 739.939 739.88 739.746 739.635 739.728 739.898 739.95 739.866 739.67 739.441 739.301 739.233 739.181 739.204 739.279 735.774 721.533 699.811 684.767 680.398 679.474 677.834 675.594 673.307 670.997 668.739 667.034 665.773 664.458 663.136 661.99 660.95 659.98 659.126 658.392 657.764 657.223 656.735 656.301 655.942 655.597 655.176 654.705 654.274 653.917 653.621 653.36 653.116 652.945 652.899 652.922 652.946 652.972 653.002 653.061 653.202 653.406 653.625 653.877 654.169 654.482 654.896 655.46 656.075 656.741 657.557 658.543 659.612 660.641 661.69 662.907 664.165 665.256 666.193 667.043 667.845 668.668 669.533 670.474 671.528 672.635 673.705 674.789 676.114 677.785 679.509 680.925 682.052 683.057 683.88 684.408 684.75 685.175 685.891 687.575 693.78 708.207 725.437 735.444 737.591 737.387 737.167 737.014 736.969 736.977 736.993 736.98 736.893 736.769 736.735 736.808 736.871 736.879 736.871 736.874 736.875 736.801 736.578 736.294 736.122 736.074 736.06 736.047 736.034 736.064 736.226 736.44 736.508 736.438 736.338 736.22 736.117 736.052 735.987 735.933 735.915 735.929 736.017 736.252 736.516 736.599 736.568 736.643 736.809 736.915 736.935 736.929 736.927 736.91 736.801 736.542 736.175 735.734 735.266 734.91 734.692 734.507 734.31 734.099 733.892 732.936 727.912 715.35 698.358 685.162 679.249 677.439 676.302 674.919 673.458 672.13 671.013 670.063 669.1 667.982 666.846 665.892 665.005 663.951 662.781 661.711 660.789 659.913 659.045 658.233 657.44 656.55 655.57 654.672 653.984 653.436 652.882 652.283 651.687 651.134 650.618 650.152 649.76 649.456 649.232 649.021 648.759 648.425 648.02 647.607 647.224 646.826 646.429 646.108 645.883 645.74 645.663 645.617 645.589 645.563 645.474 645.308 645.141 645.024 644.928 644.789 644.578 644.359 644.23 644.205 644.196 644.131 644.087 644.188 644.458 644.827 645.188 645.451 647.35 656.483 676.63 701.518 720.13 729.058 732.434 733.709 733.969 733.936 733.921 733.917 733.974 734.134 734.395 734.643 734.763 734.796 734.816 734.743 734.543 734.37 734.271 734.146 734.023 733.967
730.969 730.952 730.996 731.017 730.984 730.946 730.929 730.921 730.915 730.908 730.902 730.9 730.9 730.9 730.9 730.9 730.9 730.9 730.9 730.9 730.9 730.9 730.9 730.896 730.883 730.867 730.865 730.855 730.799 730.74 730.758 730.832 730.84 730.652 730.289 729.954 729.776 729.673 729.521 729.348 729.266 729.294 729.41 729.596 729.778 729.916 730.1 730.38 730.649 730.754 730.612 730.313 730.072 729.971 729.929 729.854 729.624 729.272 729.05 729.045 729.094 729.092 729.052 728.988 728.97 729.047 729.113 729.091 729.06 729.09 729.123 729.054 728.891 728.767 728.753 728.797 728.792 728.659 728.451 728.31 728.319 728.357 728.255 728.1 728.035 728.021 728 727.955 728.296 729.961 732.597 734.397 734.851 734.846 734.841 734.837 734.832 734.83 746.92 746.962 746.962 746.784 746.487 746.349 746.443 746.49 746.329 746.108 745.974 745.939 745.974 746.011 745.962 745.793 745.607 745.532 745.55 745.55 745.437 745.201 744.955 744.916 745.144 745.387 745.479 745.516 745.532 745.451 745.305 745.178 745.05 744.816 744.479 744.145 743.856 743.637 743.537 743.546 743.634 743.776 743.908 743.989 744.04 744.126 744.346 744.681 744.902 744.816 744.552 744.379 744.327 744.238 744.031 743.745 743.587 743.811 744.235 744.429 744.359 744.26 744.261 744.325 744.268 743.991 743.68 743.615 743.813 744.036 744.143 744.176 744.138 743.999 743.868 743.865 743.937 743.947 743.841 743.771 743.949 744.33 744.658 744.679 744.419 744.225 744.292 744.318 743.996 743.512 743.186 743.051 742.971 742.864 742.77 742.763 742.808 742.803 742.748 742.733 742.812 742.951 743.132 743.422 743.845 744.289 744.581 744.607 744.433 744.231 744.09 744.007 743.931 743.806 743.681 743.617 743.54 743.417 743.349 743.404 743.522 743.557 743.441 743.26 743.144 743.113 743.103 743.094 743.079 743.031 742.965 742.914 742.837 742.69 742.553 742.557 742.697 742.849 742.918 742.894 742.787 742.697 742.726 742.767 742.666 742.55 742.554 742.546 742.456 742.342 742.158 741.93 741.786 741.745 741.682 741.564 741.512 741.586 741.712 741.744 741.564 741.284 741.183 741.288 741.336 741.214 741.076 741.005 740.944 740.831 740.625 740.378 740.243 740.279 740.333 740.264 740.155 740.108 740.1 740.095 740.051 739.93 739.826 739.808 739.76 739.715 739.818 739.956 739.983 739.924 739.782 739.579 739.414 739.302 739.225 739.277 739.421 735.679 720.486 697.843 683.016 679.409 678.717 677.034 674.973 672.89 670.661 668.488 666.853 665.615 664.36 663.147 662.103 661.12 660.155 659.281 658.539 657.927 657.404 656.921 656.485 656.124 655.79 655.397 654.946 654.508 654.124 653.802 653.531 653.285 653.1 653.026 653.018 653.019 653.031 653.055 653.121 653.281 653.505 653.744 654.028 654.36 654.7 655.1 655.595 656.121 656.699 657.424 658.326 659.371 660.442 661.54 662.794 664.09 665.214 666.183 667.061 667.874 668.698 669.558 670.474 671.484 672.531 673.517 674.487 675.73 677.431 679.292 680.899 682.192 683.258 684.043 684.52 684.843 685.234 685.809 686.514 690.359 703.454 722.481 734.916
648.742 648.389 647.937 647.433 646.987 646.65 646.352 646.051 645.781 645.567 645.422 645.343 645.303 645.279 645.258 645.198 645.089 644.984 644.915 644.839 644.703 644.507 644.324 644.235 644.246 644.262 644.209 644.188 644.314 644.573 644.912 645.237 645.421 649.276 665.93 694.727 719.679 731.079 733.809 734.106 734.042 733.989 733.96 733.937 733.93 733.999 734.201 734.504 734.757 734.866 734.885 734.88 734.82 734.682 734.548 734.429 734.272 734.147 734.103 734.079 734.056 734.045 734.057 734.132 734.26 734.306 734.213 734.104 734.076 734.106 734.12 734.079 734.023 733.986 733.96 733.936 733.899 733.797 733.638 733.578 733.687 733.79 733.758 733.701 733.718 733.774 733.832 733.824 733.636 733.341 733.14 733.056 732.993 732.942 732.916 732.904 732.885 732.84 732.799 732.808 732.837 732.827 732.753 732.591 732.423 732.445 732.602 732.587 732.411 732.393 732.581 732.734 732.699 732.472 732.181 731.987 731.905 731.825 731.691 731.56 731.507 731.537 731.612 731.634 731.507 731.302 731.161 731.095 731.043 730.986 730.937 730.914 730.916 730.921 730.913 730.904 730.9 730.896 730.889 730.846 730.684 730.468 730.399 730.431 730.341 730.159 730.042 729.995 729.98 729.994 730.045 730.139 730.241 730.281 730.366 730.753 731.297 731.494 731.295 731.065 730.966 730.969 731.029 731.061 731.029 730.984 730.958 730.939 730.924 730.912 730.903 730.9 730.9 730.9 730.9 730.9 730.9 730.9 730.9 730.9 730.9 730.9 730.9 730.899 730.896 730.893 730.894 730.893 730.882 730.87 730.874 730.889 730.853 730.659 730.317 730.015 729.868 729.806 729.719 729.611 729.564 729.596 729.676 729.789 729.893 729.987 730.167 730.453 730.708 730.794 730.652 730.348 730.075 729.929 729.871 729.823 729.632 729.301 729.096 729.125 729.215 729.257 729.251 729.18 729.144 729.24 729.34 729.332 729.306 729.347 729.376 729.249 728.997 728.821 728.821 728.92 728.961 728.826 728.581 728.414 728.422 728.462 728.335 728.141 728.055 728.045 728.042 728.022 728.394 730.066 732.665 734.426 734.867 734.863 734.858 734.853 734.849 734.846 747.093 747.095 747.05 746.851 746.541 746.375 746.428 746.437 746.258 746.05 745.943 745.933 745.984 746.02 745.977 745.857 745.725 745.668 745.689 745.682 745.542 745.286 745.062 745.075 745.345 745.621 745.734 745.762 745.762 745.691 745.545 745.368 745.169 744.918 744.626 744.338 744.076 743.884 743.819 743.867 743.96 744.037 744.071 744.073 744.078 744.122 744.262 744.5 744.684 744.638 744.436 744.32 744.329 744.306 744.171 743.956 743.81 743.971 744.356 744.585 744.549 744.455 744.477 744.597 744.61 744.367 744.029 743.917 744.087 744.287 744.369 744.404 744.399 744.283 744.125 744.049 744.044 744.012 743.898 743.804 743.901 744.218 744.574 744.681 744.474 744.269 744.308 744.343 744.064 743.62 743.303 743.17 743.117 743.053 742.99 742.988 743.02 743.014 742.966 742.937 742.963 743.031 743.159 743.427 743.844 744.297 744.632 744.724 744.602 744.417 744.262 744.14 744.031 743.918 743.833 743.798 743.721 743.558 743.422 743.422 743.5
655.937 655.544 655.108 654.68 654.304 653.981 653.703 653.455 653.264 653.166 653.127 653.102 653.098 653.125 653.207 653.382 653.62 653.881 654.19 654.545 654.885 655.236 655.646 656.084 656.575 657.188 657.976 658.969 660.065 661.204 662.511 663.9 665.125 666.169 667.092 667.922 668.746 669.605 670.509 671.465 672.429 673.329 674.196 675.302 676.888 678.765 680.545 682.051 683.24 684.059 684.562 684.937 685.338 685.796 686.152 689.478 702.444 721.991 734.951 737.982 737.671 737.334 737.104 737.022 737.001 736.997 736.983 736.917 736.834 736.82 736.867 736.897 736.901 736.9 736.902 736.906 736.864 736.697 736.458 736.287 736.191 736.129 736.113 736.153 736.28 736.507 736.717 736.782 736.719 736.555 736.321 736.149 736.073 736.01 735.945 735.915 735.922 735.98 736.146 736.368 736.486 736.512 736.615 736.795 736.911 736.94 736.943 736.943 736.918 736.789 736.483 736.018 735.469 734.928 734.515 734.24 733.995 733.786 733.705 733.738 731.943 722.934 705.437 688.475 679.989 677.737 676.815 675.646 674.244 672.784 671.472 670.418 669.56 668.683 667.652 666.608 665.745 664.958 664.023 662.992 662.085 661.373 660.735 660.057 659.33 658.536 657.607 656.532 655.449 654.571 653.943 653.387 652.789 652.2 651.65 651.076 650.458 649.859 649.34 648.913 648.503 648.009 647.433 646.875 646.451 646.182 645.964 645.715 645.465 645.275 645.156 645.077 645.02 644.982 644.951 644.894 644.807 644.741 644.708 644.651 644.536 644.393 644.282 644.268 644.353 644.425 644.402 644.388 644.552 644.985 645.615 646.137 646.63 652.631 674.084 705.739 727.539 733.788 734.119 734.079 734.024 733.976 733.951 733.937 733.939 734.012 734.221 734.529 734.78 734.883 734.9 734.896 734.868 734.806 734.73 734.622 734.479 734.393 734.379 734.351 734.276 734.189 734.16 734.264 734.44 734.467 734.299 734.137 734.11 734.183 734.238 734.183 734.066 733.981 733.941 733.923 733.887 733.771 733.606 733.565 733.696 733.794 733.73 733.659 733.716 733.813 733.866 733.835 733.638 733.354 733.197 733.156 733.086 732.999 732.946 732.918 732.907 732.899 732.887 732.884 732.888 732.884 732.836 732.698 732.549 732.569 732.703 732.682 732.524 732.519 732.699 732.844 732.82 732.6 732.279 732.053 731.965 731.907 731.82 731.738 731.717 731.756 731.814 731.818 731.704 731.532 731.417 731.341 731.233 731.103 730.998 730.953 730.966 730.979 730.952 730.921 730.916 730.918 730.911 730.874 730.753 730.594 730.556 730.592 730.478 730.24 730.079 730.027 730.016 730.026 730.061 730.121 730.182 730.203 730.293 730.686 731.236 731.444 731.26 731.052 730.976 730.987 731.042 731.072 731.045 731.005 730.974 730.944 730.92 730.908 730.902 730.9 730.901 730.902 730.904 730.904 730.904 730.905 730.906 730.905 730.903 730.901 730.902 730.903 730.902 730.901 730.9 730.9 730.9 730.9 730.901 730.901 730.856 730.665 730.34 730.065 729.953 729.938 729.911 729.861 729.852 729.886 729.925 729.968 730.004 730.046 730.194 730.464 730.71 730.794 730.643 730.327 730.037 729.85 729.766 729.754 729.62 729.321 729.128
744.605 744.732 744.78 744.575 744.247 744.121 744.278 744.479 744.563 744.602 744.63 744.565 744.425 744.302 744.213 744.111 743.961 743.821 743.824 744.047 744.379 744.523 744.37 744.197 744.243 744.302 744.097 743.736 743.466 743.364 743.35 743.309 743.229 743.182 743.189 743.179 743.113 743.051 743.042 743.072 743.162 743.404 743.805 744.257 744.618 744.773 744.736 744.621 744.485 744.334 744.186 744.053 743.956 743.906 743.821 743.63 743.425 743.343 743.353 743.308 743.172 743.016 742.928 742.925 742.945 742.967 742.988 742.969 742.925 742.891 742.815 742.681 742.62 742.705 742.833 742.893 742.901 742.91 742.918 742.915 742.914 742.871 742.729 742.634 742.689 742.664 742.45 742.235 742.067 741.861 741.684 741.608 741.504 741.328 741.254 741.323 741.402 741.43 741.391 741.306 741.314 741.465 741.585 741.58 741.538 741.44 741.246 741.067 740.948 740.83 740.752 740.777 740.805 740.702 740.505 740.315 740.176 740.091 739.978 739.747 739.543 739.573 739.744 739.877 739.969 740.018 740.012 739.999 739.969 739.851 739.649 739.431 739.313 739.412 739.561 735.922 721.128 698.44 682.554 677.802 676.716 675.182 673.412 671.636 669.855 668.225 666.902 665.728 664.557 663.525 662.649 661.735 660.765 659.903 659.22 658.645 658.076 657.493 656.959 656.504 656.102 655.702 655.271 654.845 654.48 654.174 653.895 653.635 653.43 653.316 653.251 653.195 653.179 653.223 653.325 653.498 653.736 654.011 654.337 654.698 655.025 655.325 655.652 656.005 656.408 656.912 657.568 658.459 659.53 660.688 662.044 663.558 664.96 666.149 667.143 667.987 668.81 669.682 670.592 671.502 672.363 673.158 673.917 674.856 676.247 678.04 679.922 681.627 682.979 683.903 684.508 684.987 685.425 685.795 686.008 689.315 702.429 722.117 735.086 738.066 737.723 737.379 737.142 737.051 737.027 737.025 737.02 736.987 736.948 736.94 736.951 736.947 736.935 736.926 736.917 736.915 736.89 736.786 736.642 736.518 736.387 736.27 736.23 736.286 736.446 736.66 736.798 736.8 736.709 736.533 736.301 736.132 736.058 735.993 735.92 735.886 735.905 735.975 736.143 736.403 736.615 736.715 736.804 736.916 736.984 736.997 736.992 736.982 736.951 736.824 736.51 736.025 735.476 734.957 734.548 734.247 733.972 733.772 733.756 733.859 731.435 720.418 701.488 685.693 679.107 677.502 676.545 675.324 673.924 672.525 671.277 670.253 669.409 668.569 667.605 666.623 665.802 665.066 664.202 663.225 662.352 661.694 661.142 660.545 659.855 659.056 658.115 657.025 655.898 654.943 654.235 653.636 653.041 652.477 651.933 651.328 650.654 649.988 649.399 648.896 648.397 647.806 647.156 646.581 646.183 645.944 645.74 645.486 645.233 645.066 644.961 644.85 644.743 644.677 644.631 644.551 644.449 644.396 644.396 644.377 644.317 644.252 644.22 644.285 644.468 644.63 644.631 644.628 645.19 646.79 648.87 650.285 651.888 660.489 683.471 712.414 729.907 734.051 734.081 734.062 734.01 733.96 733.942 733.946 733.966 734.049 734.259 734.562 734.797 734.887 734.9 734.899 734.893 734.88 734.856 734.8 734.725 734.687 734.687
730.999 731.001 731.036 731.059 731.04 731.007 730.976 730.94 730.911 730.902 730.901 730.9 730.903 730.91 730.918 730.922 730.924 730.927 730.931 730.927 730.913 730.905 730.908 730.912 730.908 730.902 730.9 730.9 730.9 730.9 730.9 730.899 730.845 730.641 730.328 730.101 730.05 730.091 730.102 730.084 730.117 730.182 730.203 730.195 730.171 730.146 730.242 730.482 730.71 730.779 730.615 730.294 730.003 729.791 729.689 729.707 729.62 729.35 729.165 729.176 729.262 729.413 729.595 729.646 729.636 729.731 729.842 729.869 729.895 729.97 729.973 729.758 729.388 729.105 729.049 729.158 729.229 729.076 728.785 728.596 728.595 728.637 728.547 728.389 728.293 728.243 728.235 728.259 728.673 730.315 732.811 734.484 734.901 734.896 734.891 734.887 734.882 734.88 747.543 747.457 747.278 747.048 746.816 746.661 746.574 746.416 746.174 745.988 745.92 745.947 746.032 746.123 746.19 746.233 746.229 746.181 746.124 746.04 745.882 745.663 745.475 745.446 745.59 745.744 745.807 745.85 745.911 745.945 745.924 745.816 745.605 745.362 745.174 745.022 744.88 744.784 744.762 744.802 744.83 744.773 744.627 744.441 744.277 744.164 744.127 744.197 744.322 744.374 744.376 744.467 744.625 744.708 744.659 744.494 744.317 744.337 744.56 744.723 744.697 744.603 744.605 744.728 744.795 744.63 744.349 744.262 744.443 744.658 744.751 744.787 744.823 744.801 744.686 744.509 744.317 744.123 743.911 743.72 743.65 743.792 744.074 744.233 744.158 744.073 744.166 744.26 744.132 743.879 743.706 743.679 743.718 743.676 743.536 743.413 743.379 743.347 743.243 743.145 743.115 743.124 743.192 743.416 743.812 744.279 744.678 744.904 744.96 744.899 744.763 744.602 744.448 744.284 744.121 744.011 743.908 743.707 743.446 743.281 743.23 743.177 743.055 742.881 742.759 742.76 742.816 742.88 742.934 742.936 742.911 742.894 742.836 742.742 742.715 742.768 742.804 742.781 742.753 742.79 742.864 742.897 742.886 742.834 742.727 742.675 742.746 742.716 742.48 742.246 742.101 741.937 741.766 741.656 741.514 741.332 741.285 741.356 741.378 741.384 741.431 741.437 741.437 741.539 741.656 741.703 741.705 741.59 741.329 741.093 740.985 740.938 740.92 740.94 740.939 740.842 740.646 740.408 740.21 740.095 739.97 739.723 739.485 739.501 739.734 739.969 740.113 740.149 740.112 740.1 740.108 740.021 739.806 739.539 739.369 739.432 739.562 736.625 723.96 702.65 685.157 678.004 676.107 674.674 673.04 671.391 669.738 668.181 666.868 665.698 664.565 663.611 662.838 662.005 661.082 660.264 659.635 659.095 658.508 657.863 657.254 656.744 656.314 655.91 655.487 655.067 654.711 654.424 654.152 653.879 653.658 653.522 653.422 653.327 653.297 653.354 653.457 653.603 653.815 654.089 654.422 654.784 655.104 655.378 655.653 655.938 656.266 656.681 657.207 657.944 658.908 660.017 661.364 662.983 664.626 666.059 667.178 668.045 668.865 669.744 670.66 671.543 672.33 673.035 673.702 674.508 675.714 677.355 679.216 681.024 682.516 683.576 684.334 684.956 685.464 685.811 685.945 688.973 701.476 720.847 734.316
648.388 647.773 647.116 646.539 646.135 645.884 645.66 645.384 645.121 644.946 644.809 644.633 644.46 644.359 644.297 644.201 644.093 644.058 644.097 644.132 644.153 644.19 644.266 644.491 644.92 645.308 645.398 645.588 647.143 650.661 654.549 656.895 659.336 668.832 689.927 713.809 728.035 732.628 733.776 734.047 734.002 733.955 733.944 733.962 733.996 734.088 734.311 734.614 734.828 734.895 734.9 734.9 734.9 734.9 734.898 734.887 734.871 734.862 734.862 734.85 734.793 734.66 734.503 734.479 734.588 734.582 734.383 734.189 734.155 734.297 734.454 734.391 734.153 733.97 733.908 733.9 733.889 733.844 733.779 733.767 733.823 733.863 733.837 733.808 733.839 733.885 733.9 733.866 733.732 733.564 733.505 733.465 733.301 733.123 733.028 732.974 732.947 732.943 732.938 732.939 732.957 732.971 732.955 732.893 732.834 732.863 732.942 732.933 732.832 732.787 732.843 732.905 732.879 732.714 732.453 732.232 732.091 731.983 731.881 731.798 731.778 731.818 731.852 731.849 731.817 731.786 731.777 731.728 731.577 731.362 731.167 731.08 731.13 731.188 731.137 731.054 731.015 730.982 730.938 730.905 730.856 730.735 730.603 730.52 730.395 730.215 730.1 730.068 730.065 730.099 730.166 730.205 730.201 730.206 730.325 730.713 731.238 731.457 731.312 731.143 731.069 731.045 731.064 731.082 731.061 731.024 730.986 730.944 730.911 730.901 730.901 730.903 730.911 730.929 730.95 730.969 730.985 730.994 730.999 730.984 730.946 730.919 730.92 730.924 730.915 730.904 730.9 730.901 730.902 730.903 730.902 730.895 730.825 730.614 730.348 730.208 730.235 730.332 730.378 730.378 730.435 730.524 730.544 730.504 730.421 730.324 730.366 730.571 730.758 730.797 730.643 730.346 730.06 729.847 729.742 729.76 729.695 729.463 729.307 729.334 729.423 729.563 729.743 729.827 729.84 729.9 729.952 729.952 729.975 730.048 730.049 729.84 729.484 729.21 729.16 729.29 729.397 729.268 728.984 728.793 728.764 728.783 728.728 728.623 728.529 728.435 728.397 728.449 728.91 730.53 732.928 734.522 734.917 734.912 734.908 734.903 734.899 734.896 747.863 747.759 747.516 747.235 747.026 746.889 746.73 746.454 746.117 745.867 745.785 745.855 746.003 746.156 746.316 746.48 746.579 746.578 746.502 746.361 746.156 745.936 745.761 745.683 745.712 745.766 745.789 745.833 745.906 745.962 745.977 745.921 745.781 745.617 745.491 745.397 745.318 745.269 745.27 745.313 745.327 745.248 745.053 744.774 744.5 744.295 744.185 744.18 744.247 744.318 744.42 744.61 744.811 744.905 744.852 744.657 744.427 744.369 744.501 744.599 744.548 744.453 744.462 744.597 744.696 744.595 744.392 744.378 744.6 744.815 744.895 744.916 744.94 744.918 744.769 744.511 744.237 743.982 743.73 743.527 743.456 743.575 743.82 743.984 743.987 743.999 744.158 744.301 744.232 744.062 743.983 744.032 744.107 744.058 743.876 743.698 743.615 743.549 743.433 743.334 743.292 743.281 743.341 743.568 743.975 744.455 744.878 745.164 745.291 745.24 745.065 744.901 744.779 744.608 744.365 744.157 744.013 743.817 743.529 743.291 743.185
656.598 656.19 655.784 655.386 655.047 654.769 654.506 654.236 654.002 653.833 653.684 653.546 653.491 653.537 653.609 653.7 653.865 654.116 654.441 654.802 655.125 655.395 655.65 655.898 656.173 656.522 656.945 657.529 658.345 659.344 660.606 662.248 664.105 665.826 667.117 668.023 668.842 669.722 670.64 671.518 672.279 672.933 673.55 674.291 675.367 676.836 678.579 680.367 681.914 683.095 684.036 684.833 685.439 685.817 685.944 688.301 698.881 717.044 731.873 737.428 737.948 737.65 737.395 737.236 737.186 737.224 737.273 737.239 737.143 737.073 737.037 737.006 736.984 736.97 736.956 736.95 736.947 736.925 736.897 736.862 736.798 736.722 736.661 736.656 736.742 736.853 736.877 736.774 736.591 736.404 736.235 736.109 736.035 735.967 735.901 735.892 735.942 736.041 736.276 736.643 736.959 737.139 737.264 737.349 737.346 737.275 737.178 737.084 737.012 736.892 736.603 736.175 735.752 735.381 735.033 734.663 734.3 734.159 734.319 734.509 732.207 721.614 702.808 686.297 678.896 676.97 675.9 674.613 673.277 672.042 670.957 670.04 669.27 668.52 667.676 666.781 665.97 665.251 664.473 663.576 662.703 662.005 661.451 660.898 660.26 659.542 658.726 657.794 656.833 655.91 655.02 654.225 653.587 653.038 652.452 651.773 651.025 650.268 649.557 648.924 648.331 647.716 647.094 646.543 646.136 645.862 645.612 645.324 645.06 644.864 644.67 644.423 644.193 644.062 643.996 643.913 643.833 643.842 643.935 644.047 644.192 644.366 644.601 645.215 646.31 647.296 647.745 648.379 650.71 654.914 658.98 661.388 663.519 670.082 684.484 702.305 717.071 727.288 732.696 734.036 733.998 733.955 733.948 733.974 734.012 734.106 734.337 734.645 734.846 734.899 734.9 734.9 734.9 734.901 734.903 734.905 734.905 734.903 734.901 734.898 734.877 734.788 734.621 734.527 734.585 734.597 734.437 734.251 734.205 734.348 734.527 734.468 734.196 733.983 733.917 733.91 733.905 733.891 733.876 733.876 733.89 733.9 733.895 733.889 733.894 733.902 733.904 733.886 733.818 733.734 733.687 733.596 733.394 733.208 733.118 733.071 733.05 733.052 733.062 733.101 733.163 733.199 733.194 733.152 733.096 733.094 733.132 733.105 733.01 732.943 732.941 732.951 732.905 732.756 732.53 732.309 732.131 731.985 731.844 731.711 731.669 731.711 731.725 731.698 731.666 731.644 731.637 731.588 731.451 731.279 731.136 731.084 731.156 731.237 731.215 731.143 731.078 731.006 730.941 730.908 730.86 730.712 730.515 730.39 730.298 730.186 730.125 730.117 730.121 730.194 730.336 730.423 730.424 730.428 730.539 730.884 731.344 731.526 731.403 731.275 731.213 731.184 731.214 731.237 731.186 731.099 731.026 730.964 730.919 730.902 730.903 730.913 730.935 730.963 731.002 731.063 731.113 731.125 731.127 731.101 731.023 730.961 730.948 730.941 730.921 730.905 730.9 730.903 730.911 730.918 730.914 730.898 730.82 730.633 730.449 730.399 730.472 730.593 730.67 730.688 730.726 730.784 730.797 730.758 730.654 730.526 730.53 730.684 730.819 730.843 730.73 730.49 730.236 730.049 729.944 729.928 729.867 729.688 729.58
744.276 744.42 744.548 744.507 744.383 744.441 744.691 744.888 744.935 744.928 744.925 744.861 744.647 744.345 744.075 743.843 743.625 743.479 743.453 743.563 743.755 743.892 743.925 743.988 744.194 744.393 744.384 744.27 744.241 744.319 744.399 744.352 744.169 743.975 743.859 743.779 743.695 743.632 743.579 743.537 743.584 743.813 744.216 744.671 745.063 745.356 745.516 745.468 745.272 745.123 745.057 744.927 744.653 744.346 744.128 743.934 743.651 743.359 743.191 743.124 743.019 742.795 742.601 742.61 742.74 742.864 742.939 742.956 742.964 742.995 743.008 743 743.007 742.993 742.89 742.681 742.465 742.418 742.508 742.542 742.489 742.432 742.423 742.537 742.767 742.9 742.807 742.621 742.479 742.338 742.15 741.961 741.753 741.56 741.538 741.65 741.722 741.816 742.004 742.108 742.058 741.992 741.957 741.937 741.896 741.716 741.392 741.127 741.024 741.008 741.02 741.024 740.978 740.876 740.697 740.444 740.218 740.094 740.007 739.885 739.786 739.825 740.022 740.318 740.593 740.708 740.683 740.66 740.628 740.461 740.16 739.827 739.573 739.493 739.503 736.494 723.629 701.988 684.187 676.8 674.891 673.821 672.705 671.344 669.655 667.912 666.444 665.264 664.266 663.534 663.025 662.431 661.663 660.933 660.376 659.933 659.446 658.822 658.119 657.466 656.94 656.523 656.138 655.767 655.448 655.183 654.935 654.678 654.434 654.228 654.034 653.857 653.766 653.761 653.763 653.783 653.899 654.118 654.421 654.775 655.097 655.365 655.623 655.869 656.12 656.421 656.779 657.271 657.982 658.877 660.009 661.541 663.44 665.362 666.859 667.865 668.713 669.611 670.548 671.435 672.185 672.815 673.413 674.126 675.116 676.447 678.061 679.752 681.252 682.497 683.612 684.594 685.314 685.752 685.935 687.715 696.416 713.333 729.487 736.984 738.152 737.889 737.671 737.516 737.462 737.517 737.58 737.51 737.338 737.209 737.144 737.089 737.044 737.014 737.003 737.019 737.022 736.984 736.94 736.915 736.896 736.871 736.837 736.82 736.851 736.902 736.92 736.867 736.744 736.582 736.403 736.245 736.145 736.077 736.015 735.991 736.01 736.094 736.363 736.795 737.158 737.353 737.462 737.492 737.417 737.292 737.171 737.075 737.005 736.876 736.587 736.194 735.845 735.541 735.195 734.772 734.387 734.33 734.631 734.88 733.824 727.064 710.753 691.413 679.884 676.577 675.542 674.325 673.054 671.87 670.827 669.949 669.207 668.477 667.656 666.787 665.984 665.261 664.501 663.629 662.759 662.052 661.505 660.986 660.402 659.734 658.952 658.084 657.226 656.349 655.393 654.505 653.827 653.25 652.605 651.865 651.089 650.31 649.558 648.863 648.208 647.569 646.976 646.471 646.086 645.792 645.507 645.222 644.985 644.782 644.535 644.226 643.953 643.813 643.771 643.733 643.708 643.785 643.979 644.268 644.681 645.11 645.542 646.621 648.536 650.228 651.136 652.094 654.149 657.188 660.072 662.254 664.064 666.959 673.143 684.024 700.745 719.493 731.141 734.03 733.991 733.949 733.942 733.969 734.01 734.108 734.341 734.65 734.85 734.9 734.9 734.9 734.9 734.902 734.909 734.914 734.911 734.906 734.902
731.388 731.41 731.481 731.503 731.388 731.212 731.074 730.982 730.925 730.903 730.905 730.927 730.964 731.001 731.058 731.166 731.25 731.254 731.254 731.23 731.122 731.024 730.991 730.968 730.931 730.906 730.9 730.906 730.926 730.945 730.941 730.918 730.845 730.701 730.59 730.589 730.657 730.757 730.837 730.861 730.871 730.885 730.888 730.866 730.791 730.697 730.692 730.785 730.871 730.892 730.827 730.665 730.484 730.344 730.24 730.193 730.132 729.997 729.925 729.987 730.072 730.147 730.233 730.265 730.252 730.234 730.171 730.074 730.031 730.059 730.054 729.899 729.652 729.502 729.546 729.704 729.776 729.592 729.259 729.007 728.856 728.736 728.663 728.646 728.612 728.518 728.472 728.602 729.199 730.834 733.102 734.585 734.95 734.946 734.941 734.936 734.932 734.93 748.419 748.332 748.045 747.655 747.343 747.098 746.776 746.337 745.878 745.515 745.392 745.542 745.761 745.916 746.126 746.459 746.771 746.935 746.967 746.888 746.71 746.535 746.412 746.258 746.079 745.964 745.922 745.927 745.964 746.002 746.004 745.969 745.944 745.97 746.021 746.032 745.988 745.947 745.954 746.004 746.035 745.966 745.741 745.381 744.988 744.644 744.381 744.215 744.16 744.236 744.462 744.769 745.025 745.156 745.152 745.024 744.839 744.715 744.675 744.588 744.404 744.243 744.222 744.335 744.44 744.409 744.34 744.456 744.718 744.883 744.888 744.837 744.799 744.698 744.461 744.197 744.015 743.878 743.757 743.69 743.69 743.753 743.85 743.915 743.93 743.998 744.225 744.484 744.549 744.473 744.449 744.514 744.576 744.521 744.338 744.139 744.017 743.954 743.927 743.918 743.871 743.795 743.804 743.994 744.343 744.725 745.05 745.304 745.451 745.423 745.285 745.215 745.242 745.193 744.938 744.564 744.257 744.037 743.779 743.472 743.242 743.134 743.039 742.845 742.67 742.688 742.824 742.934 742.992 743.018 743.057 743.135 743.202 743.227 743.242 743.212 743.078 742.834 742.553 742.391 742.378 742.367 742.299 742.227 742.232 742.413 742.73 742.948 742.943 742.83 742.717 742.555 742.318 742.101 741.929 741.799 741.794 741.89 741.981 742.135 742.375 742.498 742.415 742.254 742.11 742.022 741.967 741.803 741.503 741.259 741.179 741.173 741.185 741.168 741.076 740.955 740.807 740.561 740.285 740.11 740.028 739.969 739.944 739.992 740.141 740.407 740.697 740.853 740.872 740.857 740.781 740.562 740.248 739.948 739.737 739.639 739.57 736.002 721.593 698.809 681.766 675.708 674.321 673.448 672.571 671.328 669.614 667.782 666.231 665.029 664.091 663.473 663.088 662.596 661.898 661.203 660.664 660.242 659.807 659.249 658.564 657.854 657.26 656.819 656.447 656.1 655.809 655.576 655.353 655.108 654.857 654.626 654.402 654.19 654.046 653.965 653.881 653.84 653.923 654.114 654.389 654.721 655.034 655.307 655.586 655.863 656.121 656.395 656.721 657.172 657.824 658.64 659.63 660.936 662.638 664.574 666.294 667.522 668.476 669.435 670.43 671.345 672.091 672.708 673.301 673.989 674.898 676.12 677.628 679.205 680.592 681.801 682.998 684.124 684.972 685.507 685.802 687.317 694.894 711.022 728.028
648.135 647.441 646.831 646.347 645.981 645.669 645.355 645.092 644.908 644.725 644.454 644.106 643.813 643.692 643.702 643.723 643.77 643.966 644.38 645.029 645.925 646.828 647.567 648.815 650.818 652.516 653.475 654.383 655.696 657.402 659.438 661.777 663.931 665.471 667.123 672.945 689.449 712.932 729.121 733.777 733.993 733.949 733.934 733.951 733.994 734.101 734.34 734.65 734.85 734.9 734.9 734.9 734.9 734.904 734.915 734.924 734.925 734.922 734.916 734.908 734.9 734.873 734.81 734.756 734.758 734.759 734.706 734.63 734.572 734.604 734.7 734.662 734.436 734.225 734.178 734.225 734.234 734.163 734.072 734.031 734.038 734.051 734.049 734.032 733.999 733.965 733.939 733.917 733.902 733.896 733.885 733.839 733.756 733.685 733.652 733.642 733.645 733.655 733.674 733.72 733.775 733.795 733.779 733.744 733.699 733.678 733.641 733.491 733.267 733.108 733.026 732.922 732.729 732.472 732.23 732.037 731.869 731.712 731.538 731.379 731.364 731.413 731.346 731.255 731.235 731.219 731.187 731.145 731.091 731.046 731.023 731.027 731.073 731.138 731.188 731.192 731.114 731 730.93 730.908 730.859 730.681 730.436 730.318 730.31 730.287 730.29 730.343 730.398 730.517 730.711 730.847 730.885 730.89 730.954 731.204 731.536 731.637 731.539 731.501 731.55 731.629 731.716 731.701 731.52 731.276 731.092 730.982 730.923 730.903 730.906 730.931 730.976 731.02 731.082 731.196 731.279 731.277 731.282 731.274 731.173 731.07 731.029 730.992 730.942 730.908 730.9 730.907 730.935 730.967 730.971 730.949 730.893 730.794 730.733 730.744 730.78 730.832 730.883 730.9 730.9 730.9 730.9 730.887 730.841 730.792 730.801 730.859 730.911 730.93 730.894 730.804 730.71 730.626 730.548 730.508 730.461 730.36 730.307 730.35 730.405 730.454 730.513 730.521 730.479 730.432 730.341 730.197 730.087 730.067 730.061 729.961 729.806 729.726 729.767 729.866 729.869 729.641 729.283 728.979 728.729 728.526 728.453 728.489 728.495 728.42 728.395 728.566 729.221 730.885 733.142 734.607 734.967 734.962 734.958 734.953 734.949 734.946 748.589 748.502 748.22 747.841 747.521 747.231 746.855 746.396 745.952 745.607 745.479 745.585 745.72 745.794 745.98 746.343 746.708 746.925 746.997 746.972 746.881 746.791 746.698 746.494 746.215 746.014 745.931 745.93 745.974 746.009 745.998 745.964 745.963 746.029 746.128 746.166 746.12 746.074 746.087 746.145 746.178 746.109 745.914 745.604 745.207 744.787 744.437 744.228 744.18 744.31 744.611 744.973 745.258 745.419 745.46 745.398 745.281 745.165 745.043 744.858 744.624 744.421 744.322 744.335 744.357 744.298 744.273 744.443 744.708 744.831 744.776 744.682 744.639 744.557 744.362 744.17 744.073 744.031 743.999 743.97 743.956 743.961 743.964 743.949 743.94 744.012 744.253 744.551 744.656 744.581 744.542 744.601 744.651 744.582 744.392 744.199 744.101 744.085 744.124 744.178 744.147 744.035 743.98 744.086 744.321 744.596 744.861 745.077 745.19 745.188 745.147 745.196 745.33 745.355 745.12 744.719 744.356 744.109 743.894 743.632 743.373
657.5 657.021 656.648 656.327 656.076 655.882 655.685 655.449 655.192 654.948 654.709 654.468 654.271 654.115 653.966 653.89 653.956 654.122 654.361 654.663 654.972 655.267 655.583 655.901 656.186 656.459 656.765 657.179 657.769 658.5 659.355 660.417 661.796 663.56 665.422 666.913 668.037 669.11 670.219 671.219 671.999 672.636 673.25 673.917 674.744 675.848 677.239 678.698 679.95 681.024 682.156 683.347 684.355 685.058 685.509 686.598 692.539 707.577 725.851 736.445 738.64 738.438 738.335 738.248 738.172 738.168 738.195 738.112 737.924 737.766 737.647 737.519 737.42 737.378 737.401 737.47 737.447 737.265 737.07 736.984 736.975 736.984 736.978 736.956 736.94 736.941 736.956 736.959 736.937 736.896 736.819 736.686 736.552 736.426 736.264 736.13 736.08 736.135 736.401 736.834 737.18 737.348 737.405 737.361 737.248 737.141 737.073 737.031 736.986 736.864 736.59 736.239 735.983 735.777 735.429 734.932 734.546 734.646 735.203 735.372 734.434 729.641 715.176 694.238 679.931 675.732 674.87 673.825 672.65 671.494 670.475 669.623 668.855 668.058 667.22 666.416 665.695 665.024 664.319 663.522 662.719 662.047 661.519 661.057 660.563 659.927 659.139 658.33 657.579 656.765 655.802 654.851 654.078 653.401 652.682 651.94 651.239 650.53 649.761 648.966 648.171 647.408 646.751 646.246 645.867 645.532 645.216 644.993 644.869 644.731 644.487 644.16 643.895 643.834 643.933 644.065 644.263 644.706 645.489 646.572 647.892 649.206 650.25 651.318 652.583 653.562 654.2 654.927 655.87 657.099 658.938 661.443 663.849 665.313 666.085 669.672 683.007 705.557 724.753 732.76 734.021 733.983 733.961 733.963 733.996 734.103 734.345 734.66 734.864 734.915 734.91 734.906 734.904 734.907 734.919 734.934 734.944 734.952 734.949 734.932 734.913 734.898 734.882 734.87 734.867 734.863 734.846 734.792 734.695 734.66 734.741 734.776 734.647 734.485 734.458 734.541 734.579 734.499 734.372 734.302 734.298 734.306 734.286 734.214 734.104 734.014 733.961 733.927 733.908 733.903 733.9 733.89 733.873 733.858 733.851 733.849 733.85 733.853 733.859 733.87 733.884 733.888 733.883 733.874 733.863 733.851 733.798 733.644 733.415 733.206 733.037 732.827 732.531 732.229 732.009 731.831 731.626 731.437 731.294 731.208 731.242 731.304 731.245 731.164 731.153 731.14 731.099 731.056 731.017 730.988 730.973 730.974 731 731.07 731.188 731.269 731.202 731.053 730.96 730.93 730.878 730.727 730.531 730.457 730.489 730.499 730.52 730.59 730.657 730.732 730.837 730.918 730.948 730.958 731.027 731.271 731.578 731.673 731.6 731.599 731.683 731.774 731.826 731.751 731.535 731.299 731.129 731.013 730.938 730.907 730.906 730.929 730.974 731.02 731.07 731.144 731.196 731.199 731.215 731.217 731.151 731.08 731.044 731.002 730.946 730.909 730.9 730.906 730.93 730.966 730.982 730.973 730.937 730.885 730.864 730.873 730.873 730.878 730.893 730.9 730.9 730.9 730.9 730.886 730.842 730.81 730.836 730.889 730.93 730.947 730.924 730.88 730.844 730.81 730.776 730.762 730.74 730.687 730.658
744.496 744.397 744.318 744.232 744.239 744.432 744.689 744.78 744.679 744.571 744.563 744.536 744.405 744.27 744.204 744.195 744.196 744.154 744.102 744.066 744.007 743.945 743.944 744.04 744.282 744.569 744.656 744.563 744.54 744.638 744.71 744.653 744.482 744.324 744.285 744.334 744.426 744.504 744.457 744.295 744.168 744.176 744.287 744.453 744.67 744.874 744.975 744.984 744.989 745.083 745.256 745.303 745.072 744.679 744.339 744.13 743.986 743.813 743.595 743.407 743.284 743.172 743.093 743.13 743.235 743.316 743.373 743.446 743.548 743.671 743.782 743.837 743.821 743.684 743.422 743.122 742.793 742.451 742.218 742.12 742.058 741.974 741.954 742.164 742.572 742.902 743.006 742.994 742.976 742.911 742.734 742.495 742.284 742.174 742.211 742.327 742.424 742.56 742.767 742.896 742.869 742.752 742.592 742.443 742.326 742.137 741.848 741.655 741.661 741.731 741.741 741.613 741.35 741.121 740.977 740.763 740.448 740.19 740.077 740.057 740.076 740.127 740.248 740.474 740.73 740.887 740.931 740.923 740.839 740.644 740.432 740.328 740.333 740.297 740.052 738.444 730.509 711.973 690.232 677.352 673.784 673.07 672.335 671.123 669.373 667.521 665.964 664.79 663.97 663.54 663.323 662.946 662.33 661.672 661.118 660.675 660.241 659.712 659.057 658.336 657.676 657.165 656.78 656.479 656.261 656.092 655.908 655.677 655.41 655.146 654.895 654.648 654.423 654.219 654.029 653.929 653.979 654.129 654.344 654.62 654.931 655.262 655.622 655.981 656.3 656.581 656.865 657.238 657.762 658.402 659.151 660.046 661.147 662.634 664.419 666.028 667.306 668.524 669.801 670.954 671.839 672.547 673.21 673.88 674.641 675.63 676.891 678.227 679.355 680.265 681.239 682.405 683.568 684.519 685.224 685.945 690.084 703.457 722.58 735.374 738.791 738.84 738.758 738.639 738.512 738.48 738.503 738.415 738.196 738 737.88 737.787 737.713 737.672 737.683 737.722 737.647 737.396 737.135 737.017 737.012 737.032 737.025 736.992 736.963 736.959 736.974 736.978 736.957 736.932 736.894 736.818 736.721 736.58 736.368 736.182 736.103 736.146 736.39 736.776 737.077 737.231 737.302 737.304 737.243 737.163 737.1 737.059 737.01 736.9 736.682 736.399 736.175 735.971 735.626 735.141 734.775 734.914 735.533 735.076 731.193 722.176 706.938 689.542 678.527 675.286 674.511 673.542 672.416 671.282 670.276 669.431 668.645 667.811 666.955 666.167 665.481 664.844 664.157 663.377 662.593 661.927 661.397 660.94 660.447 659.809 659.044 658.283 657.579 656.812 655.892 654.946 654.135 653.426 652.714 652.014 651.36 650.675 649.903 649.079 648.238 647.43 646.736 646.189 645.768 645.415 645.12 644.94 644.867 644.79 644.62 644.383 644.228 644.305 644.602 645.012 645.533 646.308 647.399 648.645 649.926 651.163 652.189 652.974 653.556 653.934 654.327 654.979 655.887 657.109 658.948 661.389 663.649 665.027 665.874 668.034 676.751 696.192 718.52 731.224 734.068 734.062 734.067 734.071 734.082 734.172 734.417 734.748 734.965 735.005 734.964 734.93 734.918 734.916 734.926 734.942 734.957 734.976 734.981
731.777 731.845 731.855 731.745 731.549 731.392 731.28 731.144 731.011 730.938 730.926 730.958 731.008 731.04 731.058 731.084 731.104 731.114 731.132 731.135 731.104 731.069 731.043 731 730.944 730.909 730.9 730.903 730.916 730.942 730.966 730.971 730.955 730.936 730.938 730.943 730.923 730.902 730.899 730.9 730.9 730.9 730.9 730.886 730.842 730.813 730.842 730.894 730.933 730.95 730.932 730.905 730.892 730.886 730.879 730.878 730.873 730.861 730.854 730.859 730.865 730.871 730.87 730.843 730.787 730.691 730.536 730.338 730.159 730.069 730.056 730.039 730.007 729.985 729.958 729.912 729.793 729.54 729.234 728.94 728.599 728.3 728.238 728.353 728.424 728.387 728.373 728.558 729.259 730.959 733.204 734.647 735 734.996 734.991 734.986 734.982 734.98 749.183 749.065 748.772 748.436 748.158 747.843 747.421 746.988 746.63 746.333 746.119 745.987 745.809 745.627 745.693 746.027 746.404 746.681 746.837 746.906 746.937 746.945 746.875 746.638 746.3 746.034 745.886 745.844 745.899 745.95 745.927 745.892 745.918 746.003 746.098 746.148 746.146 746.145 746.199 746.297 746.328 746.217 746.031 745.75 745.283 744.753 744.411 744.336 744.43 744.67 745.087 745.551 745.876 746.024 746.055 746.032 745.992 745.912 745.716 745.407 745.104 744.882 744.72 744.586 744.466 744.374 744.381 744.54 744.759 744.84 744.74 744.645 744.656 744.653 744.566 744.464 744.393 744.373 744.364 744.285 744.182 744.11 744.031 743.982 744.027 744.145 744.356 744.591 744.645 744.568 744.594 744.723 744.801 744.773 744.662 744.573 744.606 744.714 744.816 744.851 744.757 744.567 744.401 744.349 744.39 744.476 744.631 744.814 744.91 744.904 744.867 744.9 745.032 745.078 744.861 744.503 744.237 744.114 744.047 743.964 743.842 743.709 743.611 743.538 743.489 743.512 743.591 743.668 743.722 743.772 743.834 743.908 743.979 744.017 743.984 743.852 743.617 743.311 742.934 742.531 742.232 742.096 742.031 741.949 741.913 742.093 742.494 742.865 743.021 743.039 743.044 743.023 742.902 742.687 742.451 742.293 742.302 742.436 742.579 742.721 742.878 742.971 742.972 742.919 742.834 742.728 742.576 742.308 741.98 741.793 741.809 741.88 741.868 741.693 741.392 741.147 741.015 740.841 740.548 740.262 740.113 740.093 740.144 740.258 740.44 740.656 740.834 740.925 740.954 740.946 740.851 740.645 740.448 740.399 740.474 740.48 740.242 739.597 734.809 718.877 695.541 679.184 673.94 672.983 672.185 670.929 669.192 667.375 665.847 664.703 663.935 663.574 663.415 663.07 662.47 661.816 661.251 660.793 660.339 659.789 659.147 658.471 657.836 657.31 656.907 656.606 656.397 656.232 656.049 655.817 655.539 655.254 654.989 654.74 654.51 654.289 654.079 653.958 653.987 654.126 654.333 654.597 654.916 655.29 655.704 656.108 656.456 656.741 657.006 657.359 657.846 658.424 659.103 659.898 660.799 661.969 663.478 665.016 666.378 667.732 669.18 670.513 671.545 672.366 673.108 673.811 674.549 675.479 676.649 677.88 678.913 679.706 680.522 681.577 682.787 683.975 685.045 685.927 688.888 699.277 716.5
648.191 647.371 646.67 646.097 645.642 645.289 645.033 644.907 644.899 644.901 644.836 644.748 644.794 645.136 645.794 646.62 647.475 648.412 649.47 650.476 651.355 652.195 652.952 653.524 653.87 654.082 654.417 655.066 656.002 657.265 659.105 661.434 663.498 664.772 665.661 666.847 672.226 688.867 712.815 729.183 733.87 734.191 734.276 734.306 734.29 734.362 734.627 734.987 735.21 735.199 735.068 734.965 734.929 734.921 734.925 734.937 734.949 734.966 734.977 734.961 734.928 734.906 734.9 734.9 734.9 734.9 734.897 734.864 734.788 734.748 734.805 734.877 734.886 734.856 734.845 734.87 734.892 734.886 734.867 734.857 734.856 734.854 734.809 734.651 734.399 734.179 734.052 733.988 733.955 733.929 733.911 733.906 733.905 733.904 733.904 733.904 733.902 733.901 733.9 733.9 733.9 733.9 733.9 733.9 733.9 733.899 733.89 733.862 733.76 733.517 733.164 732.792 732.425 732.109 731.903 731.709 731.441 731.207 731.117 731.151 731.264 731.349 731.312 731.262 731.293 731.285 731.167 731.034 730.953 730.916 730.905 730.91 730.938 731.039 731.276 731.521 731.51 731.281 731.1 731.018 730.951 730.894 730.862 730.858 730.871 730.877 730.883 730.9 730.919 730.929 730.941 730.961 730.987 731.016 731.093 731.322 731.63 731.792 731.799 731.807 731.846 731.879 731.861 731.741 731.593 731.539 731.5 731.352 731.151 731.021 731.002 731.07 731.139 731.134 731.087 731.061 731.059 731.069 731.084 731.086 731.074 731.062 731.042 731 730.946 730.911 730.901 730.901 730.905 730.918 730.941 730.958 730.952 730.938 730.94 730.943 730.925 730.906 730.9 730.9 730.9 730.9 730.9 730.888 730.85 730.825 730.85 730.895 730.931 730.947 730.931 730.908 730.9 730.9 730.9 730.9 730.9 730.9 730.9 730.9 730.901 730.902 730.896 730.866 730.792 730.643 730.444 730.26 730.115 730.033 730.024 730.028 730.017 730.002 729.961 729.879 729.722 729.462 729.187 728.932 728.606 728.305 728.255 728.401 728.509 728.505 728.503 728.648 729.282 730.944 733.197 734.658 735.017 735.012 735.008 735.003 734.999 734.996 749.517 749.369 749.055 748.741 748.5 748.199 747.777 747.345 746.993 746.701 746.445 746.2 745.891 745.61 745.612 745.889 746.202 746.44 746.602 746.711 746.802 746.863 746.818 746.606 746.308 746.077 745.944 745.895 745.932 745.965 745.922 745.87 745.892 745.968 746.037 746.075 746.084 746.091 746.136 746.222 746.239 746.124 745.955 745.688 745.216 744.706 744.452 744.503 744.688 744.948 745.339 745.782 746.121 746.292 746.319 746.275 746.22 746.142 745.972 745.685 745.371 745.134 744.984 744.877 744.786 744.717 744.709 744.799 744.954 745.03 744.951 744.855 744.837 744.805 744.721 744.637 744.57 744.546 744.533 744.433 744.291 744.196 744.14 744.156 744.264 744.389 744.538 744.699 744.737 744.697 744.733 744.802 744.815 744.801 744.78 744.788 744.884 745.028 745.123 745.105 744.979 744.805 744.657 744.605 744.635 744.67 744.74 744.859 744.926 744.88 744.754 744.683 744.758 744.813 744.645 744.352 744.158 744.1 744.084 744.062 744.033
658.045 657.503 657.069 656.754 656.534 656.351 656.154 655.921 655.65 655.37 655.101 654.84 654.601 654.376 654.162 654.029 654.035 654.156 654.356 654.619 654.949 655.359 655.824 656.276 656.655 656.943 657.208 657.571 658.054 658.604 659.227 659.923 660.652 661.531 662.71 664.071 665.436 666.872 668.433 669.896 671.073 672.048 672.926 673.715 674.5 675.449 676.588 677.741 678.71 679.452 680.158 681.047 682.151 683.429 684.82 686.106 688.086 693.983 706.217 721.578 733.423 738.643 739.547 739.318 739.085 738.961 738.924 738.852 738.666 738.41 738.194 738.07 737.987 737.887 737.823 737.8 737.656 737.359 737.114 737.033 737.045 737.069 737.064 737.026 736.993 736.992 737.01 737.014 736.99 736.964 736.953 736.946 736.921 736.844 736.702 736.547 736.444 736.433 736.577 736.831 737.037 737.141 737.191 737.211 737.206 737.185 737.178 737.175 737.121 737.016 736.916 736.831 736.723 736.526 736.217 735.86 735.598 735.67 736.076 735.465 729.247 713.164 692.902 679.692 675.383 674.396 673.628 672.684 671.604 670.556 669.631 668.797 667.971 667.117 666.28 665.515 664.818 664.141 663.419 662.673 661.991 661.413 660.905 660.39 659.805 659.156 658.52 657.951 657.411 656.771 655.925 654.961 654.061 653.255 652.48 651.771 651.131 650.441 649.646 648.79 647.921 647.12 646.457 645.911 645.463 645.132 644.938 644.909 645.014 645.143 645.243 645.382 645.709 646.393 647.416 648.483 649.371 650.161 650.936 651.584 652.109 652.645 653.193 653.659 653.981 654.206 654.556 655.22 656.168 657.406 659.175 661.41 663.392 664.655 665.584 666.521 670.089 683.168 705.648 724.891 732.955 734.376 734.54 734.584 734.53 734.591 734.883 735.267 735.48 735.404 735.178 735.008 734.949 734.93 734.921 734.922 734.928 734.94 734.952 734.947 734.924 734.908 734.905 734.905 734.903 734.901 734.898 734.884 734.852 734.836 734.86 734.892 734.902 734.897 734.895 734.899 734.902 734.904 734.905 734.906 734.906 734.905 734.879 734.777 734.583 734.355 734.166 734.052 733.995 733.958 733.938 733.931 733.927 733.925 733.925 733.922 733.914 733.906 733.902 733.901 733.9 733.9 733.9 733.9 733.9 733.9 733.9 733.895 733.828 733.593 733.213 732.822 732.462 732.152 731.949 731.792 731.579 731.379 731.314 731.381 731.51 731.595 731.562 731.518 731.548 731.5 731.295 731.084 730.969 730.924 730.91 730.913 730.936 731.031 731.276 731.547 731.562 731.352 731.185 731.093 730.998 730.931 730.912 730.919 730.932 730.932 730.925 730.934 730.954 730.967 730.974 730.984 731.012 731.053 731.132 731.345 731.647 731.838 731.878 731.879 731.888 731.895 731.858 731.722 731.597 731.62 731.661 731.543 731.318 731.152 731.145 731.268 731.364 731.306 731.166 731.075 731.05 731.054 731.067 731.079 731.094 731.103 731.086 731.034 730.971 730.927 730.911 730.906 730.903 730.909 730.932 730.957 730.952 730.928 730.919 730.921 730.916 730.906 730.901 730.9 730.9 730.9 730.9 730.888 730.853 730.83 730.853 730.894 730.923 730.934 730.92 730.901 730.897 730.899 730.9 730.9 730.9 730.9 730.9
745.28 745.185 745.127 745.084 745.059 745.074 745.146 745.2 745.137 745.022 744.945 744.862 744.766 744.707 744.681 744.695 744.717 744.649 744.517 744.425 744.398 744.466 744.612 744.722 744.789 744.858 744.879 744.858 744.846 744.791 744.701 744.685 744.755 744.863 745.008 745.171 745.272 745.238 745.097 744.936 744.815 744.797 744.852 744.868 744.866 744.909 744.934 744.846 744.647 744.489 744.501 744.552 744.451 744.256 744.13 744.103 744.112 744.132 744.18 744.26 744.328 744.317 744.221 744.124 744.081 744.071 744.054 744.027 744.021 744.045 744.077 744.087 744.063 744.025 743.958 743.757 743.377 742.944 742.637 742.515 742.449 742.31 742.157 742.163 742.411 742.764 743.002 743.079 743.087 743.058 742.98 742.868 742.732 742.573 742.461 742.471 742.612 742.808 742.954 743.007 742.998 742.97 742.938 742.882 742.734 742.454 742.161 742.029 742.044 742.055 741.981 741.793 741.527 741.305 741.16 741 740.757 740.472 740.266 740.238 740.4 740.66 740.882 740.996 741.034 741.045 741.043 740.979 740.779 740.482 740.261 740.203 740.235 740.29 740.303 740.156 738.605 730.491 711.514 689.369 676.352 672.777 671.857 670.642 669.035 667.278 665.747 664.635 663.953 663.677 663.593 663.325 662.766 662.095 661.496 661.022 660.564 660.034 659.486 658.941 658.357 657.775 657.293 656.951 656.706 656.484 656.255 656.017 655.769 655.523 655.267 654.99 654.729 654.492 654.276 654.138 654.128 654.234 654.429 654.698 655.035 655.452 655.941 656.44 656.864 657.179 657.465 657.843 658.326 658.858 659.428 660.02 660.603 661.265 662.165 663.304 664.575 665.996 667.579 669.113 670.43 671.605 672.684 673.617 674.493 675.5 676.633 677.731 678.678 679.43 680.078 680.804 681.723 682.925 684.443 686.005 687.386 689.863 697.405 712.419 728.811 737.91 739.828 739.593 739.313 739.132 739.095 739.082 738.962 738.729 738.495 738.352 738.244 738.096 737.966 737.875 737.674 737.354 737.121 737.051 737.056 737.071 737.068 737.039 737.012 737.011 737.031 737.043 737.026 736.996 736.993 737.003 736.986 736.937 736.867 736.797 736.746 736.732 736.792 736.914 737.019 737.068 737.083 737.085 737.08 737.082 737.112 737.143 737.114 737.033 736.966 736.922 736.854 736.696 736.445 736.196 736.039 736.083 736.322 736.011 730.812 714.779 692.968 678.788 674.734 673.977 673.165 672.171 671.078 670.06 669.156 668.292 667.427 666.578 665.778 665.027 664.314 663.632 662.955 662.29 661.686 661.156 660.647 660.084 659.447 658.795 658.198 657.675 657.164 656.544 655.711 654.72 653.754 652.87 652.028 651.278 650.638 649.973 649.193 648.339 647.489 646.75 646.18 645.716 645.315 645.031 644.929 645.045 645.328 645.668 646.042 646.499 647.112 648.006 649.094 650.015 650.634 651.151 651.66 652.073 652.421 652.826 653.292 653.749 654.119 654.422 654.842 655.547 656.491 657.655 659.276 661.337 663.22 664.508 665.504 666.457 668.483 676.726 695.434 717.327 730.587 734.351 734.768 734.769 734.668 734.72 735.026 735.419 735.63 735.541 735.294 735.113 735.045 734.995 734.947 734.932 734.935 734.946 734.96
731.9 731.9 731.853 731.704 731.586 731.651 731.752 731.682 731.473 731.312 731.338 731.496 731.594 731.501 731.3 731.155 731.103 731.099 731.112 731.151 731.223 731.279 731.258 731.162 731.054 730.981 730.947 730.929 730.913 730.911 730.938 730.971 730.967 730.934 730.919 730.932 730.943 730.929 730.909 730.901 730.9 730.9 730.9 730.891 730.862 730.843 730.862 730.893 730.91 730.912 730.894 730.878 730.884 730.896 730.9 730.9 730.9 730.9 730.9 730.9 730.9 730.899 730.888 730.855 730.786 730.674 730.55 730.422 730.262 730.135 730.113 730.125 730.1 730.058 729.995 729.867 729.635 729.336 729.101 728.928 728.69 728.44 728.384 728.536 728.727 728.877 728.983 729.064 729.501 731.003 733.21 734.683 735.05 735.046 735.041 735.036 735.032 735.03 749.763 749.562 749.205 748.939 748.801 748.575 748.202 747.831 747.538 747.311 747.109 746.855 746.48 746.077 745.865 745.864 745.912 745.947 746.005 746.127 746.307 746.462 746.506 746.434 746.291 746.158 746.094 746.08 746.08 746.06 746.005 745.954 745.963 746.014 746.044 746.017 745.946 745.89 745.892 745.886 745.755 745.558 745.475 745.445 745.274 745.039 744.986 745.14 745.335 745.53 745.784 746.097 746.422 746.654 746.734 746.736 746.716 746.639 746.454 746.188 745.934 745.74 745.593 745.499 745.454 745.424 745.384 745.323 745.29 745.301 745.26 745.144 745.017 744.887 744.786 744.766 744.803 744.885 744.977 744.971 744.876 744.802 744.786 744.859 744.996 745.063 745.041 745.023 745.014 744.991 744.932 744.784 744.62 744.593 744.701 744.862 745.031 745.179 745.267 745.234 745.08 744.895 744.787 744.822 744.93 744.971 744.957 744.962 744.949 744.832 744.597 744.375 744.313 744.338 744.294 744.188 744.117 744.114 744.159 744.23 744.345 744.514 744.64 744.625 744.488 744.315 744.179 744.107 744.07 744.039 744.028 744.049 744.08 744.088 744.066 744.045 744.025 743.898 743.58 743.189 742.934 742.852 742.784 742.591 742.339 742.234 742.394 742.705 742.95 743.049 743.07 743.058 743.017 742.965 742.907 742.828 742.742 742.704 742.754 742.864 742.955 742.986 742.971 742.944 742.912 742.856 742.727 742.488 742.244 742.148 742.162 742.144 742.062 741.929 741.745 741.538 741.325 741.11 740.877 740.609 740.389 740.353 740.505 740.718 740.884 740.982 741.031 741.053 741.048 740.961 740.74 740.452 740.24 740.133 740.077 740.09 740.144 740.074 739.595 734.523 717.513 693.259 677.146 672.529 671.632 670.523 669.052 667.386 665.884 664.761 664.068 663.797 663.732 663.502 662.986 662.335 661.726 661.225 660.759 660.271 659.797 659.316 658.755 658.149 657.618 657.225 656.927 656.645 656.361 656.096 655.867 655.659 655.415 655.121 654.838 654.595 654.389 654.261 654.251 654.35 654.547 654.828 655.167 655.566 656.047 656.578 657.06 657.428 657.736 658.106 658.567 659.073 659.605 660.132 660.619 661.139 661.833 662.75 663.848 665.145 666.657 668.224 669.688 671.077 672.374 673.465 674.435 675.488 676.607 677.676 678.653 679.47 680.11 680.712 681.464 682.539 684.022 685.666 686.98 688.954 696.17
647.086 646.446 645.999 645.638 645.307 645.101 645.135 645.459 646.001 646.63 647.309 648.038 648.791 649.612 650.424 650.988 651.314 651.628 651.967 652.248 652.519 652.88 653.334 653.824 654.278 654.702 655.24 656.007 656.952 658.057 659.503 661.272 662.928 664.206 665.314 666.355 667.395 671.542 685.129 707.106 725.635 733.559 734.942 734.86 734.722 734.766 735.06 735.448 735.684 735.636 735.427 735.284 735.225 735.123 735.012 734.981 734.991 735.005 735.015 735.003 734.983 734.999 735.031 735.02 734.973 734.934 734.913 734.903 734.9 734.9 734.9 734.9 734.9 734.9 734.901 734.901 734.901 734.901 734.901 734.901 734.9 734.9 734.899 734.891 734.855 734.751 734.555 734.329 734.16 734.065 734.024 734.014 734.008 734.001 733.994 733.982 733.964 733.945 733.923 733.906 733.9 733.9 733.9 733.9 733.9 733.9 733.899 733.885 733.791 733.528 733.149 732.791 732.47 732.189 732.017 731.935 731.878 731.862 731.925 732.047 732.177 732.223 732.171 732.175 732.244 732.124 731.728 731.308 731.087 731.039 731.055 731.074 731.093 731.183 731.408 731.651 731.706 731.597 731.489 731.381 731.235 731.143 731.166 731.237 731.259 731.198 731.109 731.067 731.069 731.071 731.064 731.072 731.118 731.194 731.304 731.495 731.732 731.875 731.905 731.903 731.902 731.901 731.858 731.727 731.634 731.711 731.822 731.784 731.617 731.501 731.557 731.699 731.762 731.679 731.507 731.364 731.302 731.296 731.307 731.358 731.472 731.566 731.536 731.393 731.226 731.102 731.031 730.984 730.941 730.928 730.97 731.032 731.043 731.007 730.996 731.038 731.065 731.021 730.951 730.913 730.903 730.901 730.9 730.896 730.882 730.873 730.882 730.896 730.902 730.895 730.869 730.851 730.867 730.892 730.9 730.9 730.9 730.9 730.899 730.896 730.893 730.889 730.859 730.786 730.701 730.632 730.586 730.538 730.428 730.299 730.256 730.255 730.2 730.127 730.064 729.938 729.678 729.345 729.107 728.988 728.852 728.67 728.595 728.703 728.9 729.098 729.241 729.301 729.663 731.079 733.237 734.699 735.067 735.062 735.058 735.053 735.049 735.046 749.747 749.517 749.138 748.887 748.796 748.623 748.302 747.998 747.792 747.637 747.473 747.232 746.862 746.439 746.137 745.99 745.899 745.832 745.837 745.95 746.116 746.234 746.271 746.257 746.205 746.142 746.107 746.1 746.098 746.077 746.028 745.985 745.999 746.052 746.073 746.013 745.894 745.805 745.801 745.781 745.616 745.405 745.379 745.474 745.438 745.303 745.306 745.481 745.653 745.769 745.901 746.104 746.368 746.582 746.692 746.758 746.803 746.778 746.632 746.386 746.148 745.976 745.856 745.786 745.759 745.741 745.695 745.59 745.486 745.462 745.453 745.367 745.21 745.027 744.9 744.887 744.959 745.104 745.267 745.306 745.234 745.189 745.198 745.271 745.384 745.413 745.342 745.271 745.229 745.198 745.129 744.953 744.75 744.667 744.718 744.855 745.004 745.098 745.138 745.099 744.945 744.759 744.694 744.809 744.984 745.078 745.108 745.12 745.065 744.902 744.632 744.354 744.227 744.225 744.208 744.151 744.11 744.13 744.233 744.378 744.533
659.191 658.612 658.053 657.587 657.197 656.829 656.471 656.164 655.94 655.76 655.52 655.21 654.922 654.706 654.548 654.458 654.454 654.535 654.718 655.007 655.356 655.739 656.191 656.714 657.224 657.633 657.959 658.316 658.75 659.228 659.742 660.249 660.688 661.118 661.67 662.408 663.319 664.429 665.788 667.318 668.879 670.441 671.932 673.192 674.283 675.393 676.498 677.541 678.56 679.463 680.129 680.658 681.309 682.296 683.674 685.215 686.503 689.564 699.978 717.708 732.89 739.208 740.112 739.912 739.657 739.49 739.54 739.662 739.656 739.53 739.413 739.342 739.192 738.928 738.65 738.334 737.899 737.461 737.189 737.08 737.051 737.056 737.063 737.053 737.04 737.052 737.106 737.174 737.182 737.15 737.185 737.228 737.151 737.031 736.979 736.98 736.994 736.997 736.986 736.987 737.01 737.032 737.04 737.031 737.001 736.976 736.995 737.045 737.068 737.053 737.02 736.97 736.914 736.851 736.761 736.681 736.656 736.682 736.736 734.109 722.348 701.727 683.794 675.837 673.906 673.062 672.049 670.888 669.766 668.809 667.952 667.091 666.233 665.429 664.693 664.002 663.354 662.779 662.258 661.742 661.236 660.732 660.154 659.448 658.686 657.985 657.378 656.773 656.068 655.25 654.342 653.359 652.374 651.472 650.701 650.097 649.608 649.059 648.352 647.561 646.833 646.303 645.976 645.722 645.491 645.404 645.625 646.221 647.073 647.954 648.769 649.523 650.183 650.76 651.233 651.52 651.69 651.892 652.124 652.335 652.577 652.927 653.386 653.901 654.414 654.946 655.6 656.43 657.389 658.469 659.764 661.217 662.595 663.827 665.051 666.223 667.092 668.903 677.247 696.68 719.279 732.245 735.144 734.986 734.815 734.839 735.102 735.477 735.732 735.724 735.56 735.455 735.401 735.25 735.087 735.051 735.08 735.101 735.1 735.074 735.066 735.13 735.2 735.168 735.063 734.98 734.934 734.911 734.903 734.901 734.9 734.9 734.9 734.9 734.898 734.896 734.891 734.889 734.893 734.898 734.9 734.9 734.9 734.899 734.893 734.849 734.704 734.469 734.239 734.093 734.038 734.032 734.03 734.02 734.012 734.01 734.006 733.986 733.951 733.924 733.914 733.911 733.907 733.903 733.901 733.9 733.894 733.852 733.697 733.383 733.009 732.699 732.438 732.209 732.067 732.001 731.99 732.067 732.21 732.354 732.471 732.5 732.451 732.481 732.574 732.436 731.982 731.497 731.245 731.23 731.316 731.372 731.385 731.468 731.684 731.922 732.011 731.933 731.799 731.656 731.506 731.433 731.488 731.579 731.584 731.485 731.353 731.268 731.237 731.203 731.155 731.153 731.234 731.36 731.504 731.68 731.845 731.916 731.919 731.916 731.91 731.903 731.873 731.792 731.743 731.811 731.897 731.872 731.76 731.694 731.745 731.831 731.858 731.816 731.731 731.645 731.601 731.6 731.607 731.636 731.72 731.792 731.764 731.639 731.472 731.318 731.204 731.108 731.017 730.988 731.068 731.195 731.243 731.208 731.207 731.278 731.304 731.203 731.055 730.962 730.923 730.908 730.904 730.901 730.897 730.895 730.896 730.899 730.9 730.891 730.866 730.848 730.866 730.891 730.9 730.9 730.9 730.9 730.894
746.037 745.971 745.957 745.945 745.906 745.816 745.718 745.691 745.701 745.651 745.494 745.263 745.071 745.004 745.061 745.24 745.451 745.515 745.461 745.465 745.536 745.632 745.732 745.757 745.698 745.627 745.577 745.55 745.497 745.33 745.089 744.89 744.807 744.86 744.958 744.995 744.986 744.934 744.804 744.679 744.711 744.927 745.177 745.322 745.394 745.418 745.318 745.078 744.737 744.406 744.235 744.197 744.169 744.129 744.109 744.157 744.32 744.534 744.699 744.823 744.904 744.91 744.823 744.605 744.321 744.14 744.089 744.074 744.067 744.077 744.089 744.077 744.048 744.036 744.042 743.967 743.708 743.364 743.151 743.099 743.071 742.97 742.816 742.731 742.797 742.941 743.056 743.109 743.121 743.113 743.116 743.16 743.212 743.191 743.1 743.013 742.971 742.963 742.963 742.956 742.943 742.936 742.93 742.906 742.832 742.677 742.491 742.382 742.321 742.218 742.108 742.035 741.956 741.808 741.549 741.26 741.027 740.819 740.658 740.624 740.652 740.679 740.8 741.002 741.111 741.083 740.996 740.852 740.664 740.492 740.306 740.056 739.828 739.77 739.879 739.974 739.936 736.962 724.095 701.528 681.851 673.11 671.013 670.108 668.997 667.746 666.518 665.409 664.588 664.237 664.161 663.953 663.513 662.987 662.461 661.935 661.4 660.894 660.461 660.058 659.605 659.072 658.5 657.956 657.458 656.987 656.558 656.219 656.003 655.841 655.608 655.297 655.025 654.857 654.766 654.721 654.715 654.762 654.91 655.189 655.55 655.932 656.347 656.82 657.307 657.725 658.08 658.466 658.911 659.38 659.882 660.378 660.791 661.16 661.615 662.226 663.003 663.954 665.115 666.492 668.022 669.654 671.291 672.77 674.093 675.342 676.446 677.436 678.463 679.432 680.14 680.649 681.264 682.209 683.45 684.749 685.825 689.669 702.746 722.455 736.256 740.204 740.262 740.006 739.714 739.526 739.579 739.753 739.821 739.757 739.692 739.664 739.548 739.299 738.983 738.57 738.052 737.597 737.312 737.15 737.076 737.076 737.091 737.084 737.079 737.114 737.205 737.303 737.315 737.276 737.304 737.326 737.21 737.055 736.989 736.985 737 737.014 737.025 737.048 737.078 737.088 737.074 737.053 737.024 736.999 737.023 737.092 737.131 737.106 737.056 736.993 736.931 736.882 736.802 736.691 736.62 736.632 736.669 733.021 718.311 695.697 679.589 674.443 673.419 672.49 671.393 670.2 669.084 668.145 667.325 666.513 665.684 664.891 664.169 663.523 662.958 662.464 661.992 661.492 660.972 660.422 659.78 659.027 658.256 657.563 656.93 656.206 655.289 654.272 653.289 652.338 651.416 650.615 649.996 649.534 649.138 648.659 648.023 647.313 646.694 646.296 646.104 645.988 645.906 645.993 646.431 647.263 648.295 649.231 649.952 650.512 650.956 651.319 651.6 651.771 651.89 652.038 652.216 652.409 652.652 652.994 653.45 653.979 654.533 655.141 655.869 656.73 657.685 658.735 659.916 661.15 662.331 663.513 664.791 666.045 667 667.786 672.936 690.311 715.196 731.466 735.429 735.221 735.003 734.981 735.211 735.569 735.818 735.83 735.71 735.625 735.552 735.366 735.188 735.167 735.219 735.246 735.239
731.923 731.906 731.89 731.86 731.861 731.933 731.995 731.961 731.876 731.833 731.853 731.886 731.894 731.885 731.865 731.836 731.819 731.822 731.824 731.83 731.858 731.883 731.867 731.807 731.704 731.582 731.461 731.314 731.161 731.104 731.209 731.393 731.477 731.442 731.451 731.542 731.554 731.406 731.21 731.073 730.992 730.953 730.942 730.928 730.911 730.903 730.901 730.9 730.9 730.896 730.882 730.873 730.882 730.896 730.9 730.899 730.894 730.888 730.868 730.801 730.728 730.724 730.715 730.607 730.49 730.442 730.456 730.543 730.61 730.555 730.467 730.405 730.323 730.27 730.246 730.126 729.853 729.519 729.293 729.272 729.342 729.295 729.135 729.082 729.255 729.537 729.729 729.736 729.946 731.196 733.275 734.729 735.1 735.095 735.091 735.086 735.082 735.079 749.529 749.216 748.779 748.573 748.627 748.626 748.412 748.162 748.03 748 747.957 747.76 747.395 746.999 746.675 746.394 746.108 745.867 745.777 745.856 745.967 746.002 746.01 746.061 746.131 746.157 746.146 746.154 746.213 746.263 746.218 746.125 746.136 746.252 746.273 746.122 745.947 745.865 745.853 745.815 745.669 745.528 745.597 745.795 745.883 745.855 745.865 745.938 745.985 745.983 745.969 745.992 746.082 746.214 746.374 746.557 746.703 746.788 746.814 746.758 746.608 746.381 746.167 746.063 746.037 746.016 745.983 745.929 745.87 745.853 745.861 745.833 745.716 745.493 745.241 745.078 745.081 745.267 745.505 745.58 745.533 745.578 745.722 745.865 745.969 746 745.978 745.96 745.963 745.978 745.944 745.775 745.491 745.181 744.963 744.914 744.938 744.925 744.893 744.844 744.756 744.706 744.823 745.128 745.463 745.657 745.732 745.74 745.609 745.308 744.903 744.546 744.361 744.284 744.212 744.156 744.155 744.243 744.444 744.669 744.81 744.879 744.913 744.912 744.833 744.61 744.32 744.139 744.089 744.073 744.063 744.07 744.071 744.045 744.014 744.01 744.005 743.896 743.626 743.318 743.143 743.11 743.113 743.098 743.07 743.078 743.149 743.238 743.296 743.315 743.288 743.224 743.195 743.283 743.404 743.378 743.216 743.075 743.018 743.011 743.014 743.002 742.976 742.957 742.947 742.928 742.881 742.771 742.601 742.454 742.343 742.212 742.098 742.033 741.975 741.855 741.624 741.358 741.161 741.024 740.952 740.972 740.979 740.95 741.056 741.283 741.369 741.246 741.052 740.849 740.67 740.541 740.353 740.043 739.759 739.684 739.85 740.07 740.122 738.455 729.421 709.319 686.924 674.243 670.859 670.009 669.013 667.912 666.807 665.742 664.894 664.496 664.386 664.169 663.76 663.298 662.833 662.327 661.766 661.224 660.771 660.369 659.945 659.447 658.861 658.246 657.648 657.088 656.607 656.256 656.049 655.898 655.676 655.388 655.152 655.026 654.973 654.947 654.937 654.962 655.078 655.326 655.673 656.049 656.434 656.854 657.299 657.718 658.121 658.575 659.063 659.538 660.027 660.506 660.892 661.213 661.597 662.133 662.848 663.709 664.69 665.847 667.229 668.793 670.443 672.116 673.798 675.327 676.493 677.442 678.461 679.474 680.224 680.739 681.341 682.241 683.329 684.37 685.201 688.943 702.176
646.658 646.428 646.408 646.488 646.629 646.939 647.553 648.437 649.382 650.161 650.688 651.028 651.288 651.534 651.747 651.887 651.991 652.119 652.29 652.505 652.755 653.073 653.511 654.055 654.649 655.303 656.057 656.907 657.822 658.819 659.918 661.041 662.14 663.292 664.544 665.78 666.778 667.38 671.806 688.74 714.275 731.429 735.682 735.46 735.196 735.118 735.32 735.67 735.911 735.943 735.867 735.797 735.703 735.51 735.351 735.367 735.445 735.474 735.468 735.446 735.46 735.565 735.652 735.56 735.348 735.182 735.096 735.044 735.006 734.97 734.934 734.911 734.904 734.9 734.888 734.853 734.792 734.759 734.802 734.867 734.896 734.9 734.9 734.9 734.9 734.891 734.826 734.65 734.415 734.266 734.248 734.248 734.203 734.158 734.16 734.217 734.272 734.25 734.185 734.138 734.092 734.033 733.977 733.932 733.906 733.9 733.893 733.822 733.582 733.169 732.771 732.548 732.449 732.377 732.333 732.345 732.477 732.763 733.058 733.22 733.279 733.276 733.239 733.244 733.229 732.999 732.554 732.125 731.92 732.013 732.262 732.389 732.33 732.288 732.389 732.535 732.568 732.417 732.164 731.959 731.847 731.822 731.882 731.948 731.947 731.894 731.799 731.664 731.544 731.441 731.335 731.341 731.502 731.67 731.777 731.883 731.966 731.968 731.949 731.949 731.934 731.91 731.899 731.898 731.934 732.02 732.075 732.026 731.938 731.895 731.893 731.9 731.903 731.902 731.899 731.895 731.892 731.893 731.896 731.903 731.91 731.908 731.898 731.88 731.84 731.782 731.692 731.523 731.328 731.24 731.319 731.497 731.585 731.543 731.56 731.675 731.701 731.571 731.405 731.266 731.144 731.081 731.064 731.014 730.948 730.916 730.908 730.908 730.908 730.905 730.899 730.895 730.896 730.899 730.9 730.894 730.874 730.848 730.809 730.691 730.552 730.555 730.631 730.602 730.526 730.498 730.513 730.594 730.676 730.654 730.587 730.53 730.466 730.453 730.465 730.358 730.097 729.763 729.504 729.463 729.559 729.52 729.303 729.185 729.349 729.66 729.872 729.883 730.081 731.297 733.33 734.754 735.117 735.112 735.107 735.103 735.099 735.096 749.374 749.029 748.561 748.358 748.458 748.532 748.369 748.141 748.047 748.082 748.106 747.953 747.611 747.235 746.932 746.639 746.291 745.981 745.863 745.937 746.032 746.04 746.029 746.092 746.196 746.244 746.232 746.256 746.373 746.495 746.47 746.333 746.316 746.45 746.465 746.268 746.067 745.99 745.991 745.964 745.842 745.723 745.773 745.939 746.05 746.077 746.083 746.089 746.074 746.039 746.002 745.993 746.044 746.153 746.309 746.477 746.599 746.701 746.807 746.852 746.771 746.542 746.277 746.123 746.066 746.026 745.993 745.951 745.896 745.866 745.865 745.861 745.811 745.649 745.363 745.098 745.045 745.239 745.481 745.537 745.47 745.531 745.74 745.947 746.074 746.112 746.122 746.186 746.3 746.383 746.334 746.121 745.802 745.437 745.133 744.99 744.931 744.868 744.834 744.823 744.797 744.797 744.933 745.27 745.664 745.902 745.987 745.985 745.84 745.522 745.115 744.782 744.618 744.53 744.42 744.327 744.328 744.448 744.638 744.796 744.876
660.194 659.718 659.133 658.471 657.793 657.164 656.65 656.291 656.081 655.933 655.735 655.492 655.305 655.208 655.154 655.117 655.104 655.133 655.235 655.444 655.751 656.105 656.469 656.857 657.281 657.721 658.178 658.689 659.211 659.686 660.152 660.609 660.969 661.252 661.591 662.088 662.781 663.6 664.457 665.43 666.642 668.039 669.516 671.197 673.189 675.097 676.479 677.525 678.597 679.625 680.373 680.881 681.445 682.246 683.179 684.072 684.811 687.651 698.34 716.84 732.836 739.552 740.448 740.108 739.748 739.482 739.469 739.669 739.835 739.874 739.873 739.882 739.851 739.693 739.346 738.834 738.319 737.947 737.635 737.331 737.199 737.309 737.463 737.499 737.494 737.552 737.655 737.739 737.74 737.661 737.589 737.503 737.331 737.15 737.059 737.043 737.061 737.113 737.252 737.456 737.568 737.483 737.289 737.146 737.093 737.092 737.165 737.307 737.385 737.322 737.207 737.115 737.047 736.987 736.883 736.695 736.509 736.449 736.142 731.257 714.996 692.192 677.285 673.117 672.266 671.252 670.154 669.021 667.923 666.97 666.193 665.469 664.683 663.873 663.135 662.55 662.103 661.705 661.282 660.8 660.249 659.64 658.963 658.199 657.384 656.539 655.593 654.444 653.143 651.95 651.044 650.318 649.675 649.204 648.924 648.699 648.453 648.15 647.723 647.251 646.942 646.892 647.063 647.387 647.788 648.267 648.887 649.601 650.28 650.82 651.154 651.325 651.468 651.654 651.838 651.965 652.061 652.19 652.391 652.637 652.874 653.145 653.55 654.098 654.72 655.393 656.147 656.98 657.864 658.816 659.855 660.918 661.99 663.129 664.32 665.479 666.479 667.208 671.848 688.947 714.484 731.558 735.773 735.552 735.279 735.178 735.368 735.714 735.957 736.012 735.971 735.913 735.816 735.638 735.515 735.578 735.69 735.724 735.715 735.689 735.693 735.774 735.836 735.75 735.572 735.432 735.346 735.287 735.234 735.147 735.029 734.949 734.922 734.91 734.891 734.851 734.783 734.745 734.789 734.86 734.895 734.901 734.902 734.903 734.902 734.898 734.867 734.77 734.626 734.538 734.539 734.529 734.46 734.399 734.387 734.421 734.441 734.388 734.317 734.268 734.196 734.093 734.001 733.939 733.908 733.9 733.897 733.844 733.633 733.25 732.889 732.715 732.675 732.668 732.672 732.722 732.902 733.215 733.494 733.623 733.655 733.642 733.611 733.599 733.532 733.271 732.85 732.465 732.285 732.396 732.663 732.793 732.714 732.621 732.638 732.688 732.645 732.445 732.154 731.92 731.792 731.76 731.831 731.922 731.944 731.913 731.833 731.685 731.542 731.449 731.377 731.411 731.581 731.707 731.738 731.807 731.918 731.964 731.968 731.978 731.961 731.925 731.907 731.912 731.957 732.047 732.1 732.046 731.954 731.908 731.902 731.908 731.912 731.908 731.902 731.9 731.9 731.9 731.905 731.921 731.931 731.921 731.905 731.898 731.887 731.871 731.814 731.655 731.466 731.363 731.383 731.515 731.602 731.563 731.584 731.717 731.781 731.723 731.631 731.511 731.359 731.278 731.249 731.144 731.012 730.949 730.938 730.943 730.954 730.952 730.932 730.913 730.906 730.903 730.901 730.891 730.854 730.804 730.744
746.398 746.202 746.1 746.036 745.984 745.896 745.77 745.688 745.678 745.706 745.729 745.624 745.313 744.98 744.915 745.142 745.389 745.419 745.34 745.421 745.682 745.951 746.123 746.185 746.214 746.339 746.551 746.683 746.605 746.345 746 745.601 745.233 745.016 744.901 744.811 744.782 744.811 744.843 744.872 744.998 745.323 745.734 746.012 746.145 746.164 746.005 745.693 745.334 745.057 744.925 744.847 744.737 744.632 744.625 744.737 744.864 744.922 744.937 744.903 744.783 744.632 744.488 744.321 744.174 744.101 744.054 743.995 743.967 743.981 743.966 743.91 743.896 743.925 743.852 743.602 743.32 743.162 743.148 743.215 743.282 743.36 743.502 743.663 743.779 743.839 743.852 743.842 743.803 743.714 743.638 743.684 743.792 743.774 743.608 743.436 743.351 743.352 743.394 743.366 743.235 743.106 743.027 742.975 742.94 742.867 742.705 742.52 742.361 742.231 742.194 742.221 742.206 742.131 742.016 741.889 741.794 741.742 741.728 741.727 741.635 741.454 741.405 741.524 741.549 741.367 741.1 740.822 740.596 740.482 740.353 740.068 739.748 739.618 739.818 740.201 740.422 737.475 724.335 701.374 681.525 672.821 670.784 669.985 669.101 668.163 667.229 666.287 665.47 664.994 664.771 664.51 664.154 663.795 663.405 662.907 662.313 661.715 661.198 660.761 660.344 659.88 659.319 658.65 657.922 657.247 656.723 656.36 656.13 655.976 655.812 655.627 655.49 655.411 655.337 655.264 655.239 655.28 655.384 655.567 655.841 656.174 656.522 656.886 657.305 657.78 658.288 658.826 659.357 659.825 660.27 660.703 661.045 661.314 661.635 662.11 662.784 663.573 664.35 665.196 666.259 667.475 668.71 670.188 672.223 674.428 676.167 677.49 678.699 679.732 680.443 680.928 681.44 682.125 682.941 683.8 684.592 686.213 693.063 708.984 727.563 738.147 740.347 740.06 739.751 739.492 739.463 739.663 739.848 739.906 739.91 739.912 739.887 739.756 739.421 738.901 738.397 738.06 737.761 737.451 737.354 737.55 737.783 737.85 737.813 737.787 737.795 737.815 737.788 737.696 737.616 737.557 737.443 737.3 737.211 737.201 737.216 737.239 737.378 737.631 737.776 737.675 737.444 737.26 737.162 737.125 737.185 737.344 737.472 737.453 737.331 737.194 737.097 737.037 736.929 736.708 736.466 736.352 735.057 727.311 709.133 688.167 676.048 672.804 671.954 670.957 669.87 668.709 667.557 666.562 665.771 665.035 664.231 663.423 662.714 662.159 661.73 661.334 660.892 660.369 659.765 659.124 658.437 657.624 656.66 655.574 654.364 653.062 651.82 650.85 650.204 649.712 649.259 648.936 648.779 648.675 648.585 648.479 648.259 647.995 647.893 648.022 648.366 648.877 649.387 649.799 650.189 650.594 650.982 651.299 651.458 651.489 651.556 651.719 651.897 652.02 652.111 652.252 652.488 652.748 652.954 653.181 653.56 654.105 654.744 655.436 656.197 657.029 657.898 658.821 659.819 660.833 661.87 662.982 664.128 665.237 666.244 667.098 671.7 688.151 713.087 730.538 735.471 735.511 735.26 735.18 735.38 735.728 735.983 736.071 736.058 735.995 735.883 735.708 735.606 735.701 735.839 735.874 735.848
732.032 731.964 731.928 731.929 731.972 732.058 732.107 732.05 731.956 731.908 731.903 731.912 731.919 731.912 731.903 731.9 731.901 731.903 731.911 731.929 731.938 731.926 731.909 731.902 731.899 731.896 731.857 731.734 731.589 731.484 731.455 731.551 731.656 731.653 731.678 731.789 731.858 731.849 731.809 731.715 731.564 731.47 731.41 731.263 731.098 731.022 731.012 731.037 731.084 731.098 731.046 730.988 730.964 730.947 730.923 730.898 730.857 730.792 730.705 730.532 730.334 730.343 730.52 730.628 730.678 730.759 730.825 730.857 730.874 730.873 730.859 730.825 730.757 730.705 730.692 730.627 730.408 730.049 729.727 729.651 729.748 729.714 729.515 729.451 729.671 729.989 730.16 730.138 730.351 731.564 733.502 734.82 735.15 735.145 735.141 735.136 735.132 735.129 748.917 748.534 748.041 747.841 747.986 748.176 748.161 748.061 748.093 748.285 748.459 748.431 748.21 747.945 747.713 747.43 747.045 746.713 746.586 746.606 746.599 746.48 746.342 746.353 746.5 746.578 746.515 746.443 746.478 746.6 746.654 746.568 746.535 746.664 746.735 746.631 746.487 746.438 746.505 746.568 746.496 746.344 746.285 746.362 746.477 746.544 746.561 746.537 746.434 746.265 746.116 746.031 746.019 746.077 746.176 746.252 746.293 746.416 746.649 746.847 746.894 746.77 746.536 746.31 746.152 746.055 745.967 745.792 745.544 745.379 745.349 745.407 745.484 745.415 745.1 744.762 744.726 744.994 745.259 745.303 745.256 745.373 745.669 745.986 746.214 746.301 746.315 746.438 746.682 746.837 746.772 746.54 746.199 745.749 745.31 745.039 744.897 744.801 744.768 744.806 744.857 744.899 745.023 745.346 745.767 746.085 746.275 746.312 746.132 745.837 745.549 745.339 745.229 745.148 745.036 744.93 744.916 744.999 745.059 745.047 745.019 744.922 744.686 744.429 744.27 744.178 744.119 744.077 744.009 743.926 743.9 743.918 743.874 743.778 743.773 743.851 743.79 743.52 743.248 743.136 743.183 743.317 743.424 743.513 743.676 743.854 743.957 743.994 743.994 743.984 743.973 743.935 743.883 743.879 743.911 743.895 743.805 743.702 743.636 743.629 743.66 743.622 743.476 743.317 743.182 743.066 742.997 742.93 742.791 742.606 742.423 742.301 742.335 742.448 742.459 742.352 742.22 742.128 742.07 742.009 741.942 741.859 741.685 741.44 741.316 741.345 741.323 741.179 740.987 740.761 740.556 740.47 740.389 740.136 739.809 739.647 739.824 740.228 740.51 736.813 721.244 696.559 678.195 671.863 670.636 669.853 669.035 668.217 667.4 666.535 665.747 665.263 665.008 664.711 664.332 663.966 663.574 663.074 662.472 661.843 661.281 660.812 660.383 659.936 659.419 658.777 658.038 657.354 656.847 656.492 656.236 656.056 655.907 655.774 655.68 655.613 655.518 655.409 655.366 655.416 655.526 655.695 655.949 656.273 656.606 656.941 657.344 657.847 658.397 658.945 659.459 659.92 660.37 660.807 661.159 661.447 661.778 662.234 662.869 663.603 664.3 665.034 665.954 667.016 668.064 669.275 671.087 673.322 675.35 677.021 678.459 679.575 680.307 680.801 681.29 681.916 682.688 683.561 684.433 685.35 689.597
649.552 649.802 650.2 650.678 651.019 651.145 651.203 651.297 651.435 651.56 651.563 651.488 651.516 651.695 651.905 652.05 652.148 652.299 652.548 652.803 652.994 653.216 653.591 654.128 654.78 655.51 656.305 657.135 657.966 658.846 659.805 660.765 661.731 662.786 663.909 665.023 666.061 666.996 670.63 683.89 706.635 726.215 734.37 735.484 735.256 735.198 735.403 735.764 736.064 736.214 736.226 736.128 735.962 735.767 735.671 735.763 735.884 735.902 735.852 735.763 735.721 735.817 735.912 735.862 735.774 735.756 735.743 735.71 735.677 735.561 735.348 735.166 735.059 734.975 734.917 734.895 734.886 734.882 734.886 734.895 734.899 734.903 734.912 734.919 734.912 734.903 734.899 734.895 734.886 734.882 734.884 734.881 734.87 734.857 734.845 734.798 734.666 734.52 734.472 734.451 734.333 734.152 734.01 733.941 733.915 733.903 733.894 733.848 733.692 733.404 733.124 733.026 733.122 733.289 733.407 733.485 733.62 733.788 733.886 733.906 733.901 733.896 733.893 733.879 733.781 733.523 733.197 732.97 732.921 733.089 733.353 733.445 733.318 733.151 733.045 732.98 732.874 732.622 732.268 732.013 731.909 731.869 731.869 731.899 731.916 731.911 731.847 731.678 731.501 731.425 731.432 731.55 731.751 731.832 731.779 731.832 732.005 732.103 732.141 732.172 732.117 732.015 731.962 731.962 732.001 732.083 732.129 732.065 731.961 731.909 731.902 731.909 731.915 731.911 731.904 731.901 731.904 731.914 731.929 731.945 731.948 731.936 731.922 731.91 731.903 731.9 731.876 731.804 731.708 731.608 731.557 731.639 731.758 731.798 731.837 731.907 731.932 731.911 731.886 731.826 731.718 731.625 731.527 731.366 731.223 731.169 731.178 731.23 731.315 731.346 731.269 731.182 731.149 731.106 731.024 730.947 730.889 730.814 730.697 730.513 730.343 730.371 730.548 730.67 730.74 730.828 730.886 730.899 730.899 730.898 730.895 730.877 730.832 730.788 730.77 730.72 730.523 730.185 729.895 729.834 729.915 729.881 729.725 729.705 729.934 730.222 730.341 730.27 730.454 731.646 733.553 734.845 735.167 735.162 735.157 735.153 735.148 735.146 748.659 748.289 747.838 747.689 747.857 748.059 748.082 748.035 748.103 748.317 748.521 748.533 748.357 748.136 747.939 747.677 747.319 747.024 746.911 746.895 746.838 746.671 746.464 746.396 746.484 746.523 746.429 746.32 746.299 746.373 746.438 746.426 746.473 746.652 746.783 746.755 746.66 746.629 746.712 746.802 746.766 746.623 746.536 746.591 746.693 746.754 746.778 746.768 746.667 746.466 746.247 746.093 746.037 746.07 746.154 746.215 746.238 746.346 746.588 746.822 746.913 746.838 746.635 746.389 746.185 746.059 745.949 745.715 745.373 745.131 745.081 745.165 745.279 745.239 744.96 744.671 744.664 744.924 745.179 745.252 745.262 745.42 745.733 746.081 746.356 746.446 746.407 746.486 746.721 746.889 746.878 746.734 746.43 745.946 745.466 745.161 744.986 744.869 744.818 744.835 744.878 744.925 745.068 745.419 745.867 746.213 746.423 746.454 746.269 746.008 745.789 745.635 745.54 745.448 745.305 745.16 745.128 745.196 745.213 745.156 745.095
660.344 659.931 659.466 658.871 658.158 657.493 657.014 656.68 656.411 656.19 656.018 655.902 655.839 655.786 655.694 655.584 655.541 655.592 655.692 655.841 656.079 656.391 656.702 657.001 657.379 657.898 658.489 659.04 659.511 659.948 660.42 660.896 661.284 661.607 661.957 662.397 662.981 663.642 664.258 664.885 665.659 666.578 667.496 668.496 669.956 671.899 673.948 675.915 677.701 679.084 679.982 680.557 681.063 681.675 682.433 683.315 684.239 685.094 688.056 698.671 716.861 732.516 739.016 739.867 739.596 739.371 739.33 739.491 739.687 739.817 739.885 739.911 739.911 739.843 739.584 739.14 738.739 738.509 738.319 738.159 738.211 738.445 738.609 738.582 738.39 738.123 737.91 737.755 737.588 737.474 737.505 737.611 737.669 737.67 737.671 737.698 737.663 737.56 737.583 737.771 737.909 737.887 737.794 737.696 737.567 737.431 737.401 737.524 737.681 737.722 737.608 737.408 737.261 737.2 737.095 736.869 736.633 736.495 732.765 717.882 694.946 678.637 673.562 672.7 671.842 670.742 669.473 668.124 666.873 665.882 665.104 664.342 663.536 662.809 662.2 661.658 661.158 660.613 659.907 659.046 658.13 657.234 656.325 655.266 654.026 652.756 651.625 650.739 650.16 649.891 649.827 649.786 649.73 649.817 650.063 650.328 650.608 650.881 651.052 651.18 651.364 651.589 651.849 652.092 652.164 652.044 651.875 651.749 651.692 651.658 651.551 651.409 651.411 651.609 651.868 652.061 652.191 652.352 652.59 652.835 653.046 653.308 653.696 654.211 654.853 655.614 656.452 657.28 658.058 658.874 659.779 660.677 661.559 662.54 663.638 664.761 665.817 666.776 668.82 676.983 695.754 718.139 731.75 735.312 735.382 735.329 735.513 735.886 736.244 736.447 736.456 736.298 736.066 735.857 735.771 735.824 735.882 735.865 735.8 735.686 735.622 735.717 735.8 735.712 735.615 735.653 735.71 735.717 735.717 735.664 735.521 735.356 735.204 735.051 734.942 734.906 734.902 734.901 734.9 734.9 734.9 734.902 734.908 734.912 734.908 734.902 734.9 734.9 734.9 734.9 734.9 734.9 734.9 734.899 734.897 734.857 734.734 734.613 734.603 734.614 734.508 734.295 734.093 733.982 733.935 733.91 733.894 733.855 733.736 733.498 733.24 733.16 733.3 733.51 733.652 733.73 733.811 733.886 733.918 733.915 733.904 733.9 733.9 733.89 733.81 733.602 733.359 733.225 733.233 733.389 733.612 733.693 733.579 733.399 733.237 733.117 732.986 732.731 732.378 732.119 732.014 731.966 731.94 731.939 731.946 731.951 731.903 731.748 731.59 731.552 731.599 731.715 731.865 731.894 731.821 731.888 732.083 732.172 732.179 732.198 732.156 732.063 732.009 732.005 732.043 732.128 732.175 732.096 731.971 731.91 731.901 731.905 731.914 731.918 731.911 731.905 731.911 731.928 731.947 731.964 731.969 731.96 731.947 731.931 731.919 731.917 731.902 731.86 731.796 731.707 731.66 731.732 731.84 731.898 731.959 732.012 731.99 731.932 731.901 731.87 731.81 731.732 731.61 731.456 731.371 731.383 731.438 731.51 731.587 731.604 731.53 731.456 731.429 731.37 731.227 731.069 730.956 730.862 730.744
746.692 746.434 746.195 746.05 745.946 745.707 745.328 745.042 744.984 745.102 745.26 745.255 745.03 744.799 744.787 744.978 745.175 745.25 745.299 745.489 745.816 746.182 746.477 746.549 746.46 746.503 746.72 746.883 746.912 746.843 746.587 746.121 745.666 745.363 745.162 745.03 744.965 744.949 744.97 745.035 745.228 745.63 746.101 746.432 746.601 746.614 746.466 746.263 746.077 745.915 745.807 745.717 745.557 745.362 745.299 745.354 745.334 745.236 745.139 744.934 744.577 744.262 744.126 744.102 744.092 744.042 743.933 743.818 743.76 743.718 743.609 743.47 743.492 743.687 743.766 743.573 743.312 743.227 743.346 743.537 743.665 743.736 743.845 743.973 744.051 744.083 744.09 744.089 744.086 744.07 744.03 743.982 743.93 743.851 743.764 743.743 743.798 743.863 743.909 743.928 743.906 743.824 743.643 743.387 743.173 743.034 742.87 742.633 742.414 742.356 742.514 742.747 742.846 742.765 742.657 742.62 742.553 742.376 742.16 741.921 741.614 741.301 741.1 741.016 740.952 740.855 740.696 740.485 740.363 740.414 740.45 740.276 739.969 739.766 739.901 740.324 740.668 738.083 725.65 702.862 682.081 672.408 670.131 669.466 668.841 668.25 667.655 666.99 666.357 665.948 665.68 665.298 664.782 664.282 663.834 663.334 662.686 661.941 661.265 660.738 660.311 659.924 659.496 658.933 658.252 657.616 657.159 656.849 656.59 656.341 656.127 655.996 655.939 655.896 655.827 655.754 655.737 655.782 655.858 655.987 656.211 656.501 656.783 657.05 657.41 657.954 658.599 659.164 659.587 659.974 660.435 660.93 661.347 661.694 662.057 662.496 663.054 663.673 664.233 664.763 665.392 666.158 666.963 667.814 668.929 670.415 672.213 674.273 676.394 678.204 679.478 680.261 680.816 681.403 682.124 682.991 683.945 684.9 686.714 693.299 708.197 725.963 736.789 739.562 739.455 739.209 739.148 739.256 739.437 739.632 739.786 739.863 739.892 739.85 739.633 739.268 738.967 738.805 738.661 738.558 738.636 738.812 738.89 738.806 738.558 738.223 737.942 737.71 737.485 737.379 737.463 737.616 737.715 737.772 737.823 737.857 737.826 737.754 737.767 737.88 737.957 737.941 737.9 737.866 737.801 737.703 737.665 737.743 737.852 737.875 737.776 737.613 737.492 737.422 737.306 737.083 736.832 736.671 732.723 717.109 693.545 677.522 673.058 672.405 671.536 670.405 669.078 667.693 666.469 665.526 664.764 664.024 663.291 662.632 662.012 661.367 660.699 659.938 658.992 657.907 656.782 655.669 654.589 653.515 652.434 651.436 650.645 650.12 649.865 649.891 650.173 650.531 650.835 651.214 651.68 652.038 652.267 652.415 652.48 652.55 652.67 652.765 652.808 652.811 652.73 652.545 652.302 652.054 651.857 651.716 651.551 651.37 651.33 651.512 651.796 652.035 652.205 652.38 652.603 652.842 653.094 653.415 653.823 654.32 654.937 655.693 656.544 657.376 658.128 658.894 659.74 660.576 661.395 662.311 663.349 664.426 665.445 666.39 667.466 671.595 685.165 707.499 726.453 734.414 735.656 735.629 735.794 736.152 736.502 736.679 736.653 736.447 736.162 735.946 735.872 735.881 735.864 735.803 735.718
